ply
format ascii 1.0
element vertex 1275
property float x
property float y
property float z
property uchar red
property uchar green
property uchar blue
end_header
-0.035461 -0.569360 0.183815 255 0 0
-0.247828 -0.128503 -0.314552 127 127 0
0.302795 0.388143 0.514073 127 0 127
0.382693 -0.744289 0.009766 204 51 127
0.314503 0.589290 0.514610 127 0 127
0.382693 -0.742106 -0.456419 204 51 127
-0.357512 0.246794 0.311092 76 0 153
-0.348207 -0.131518 0.514610 255 0 0
0.382693 -0.593026 0.239220 153 0 76
-0.149068 -0.397927 -0.514057 0 0 255
-0.246198 0.472913 -0.080110 76 153 0
0.360922 0.311724 -0.172628 153 0 76
-0.290242 -0.128503 0.107229 127 127 0
0.026300 0.472913 0.186138 76 153 0
-0.379282 -0.396408 -0.377107 76 0 153
-0.379282 -0.079287 0.414304 76 0 153
0.182660 -0.558475 0.458200 255 0 0
0.298331 0.483312 0.365770 127 127 0
-0.357512 0.541009 0.391497 76 0 153
0.117704 0.451143 0.459333 0 255 0
-0.198502 -0.569360 -0.219521 255 0 0
-0.294584 0.212835 0.511361 255 0 0
0.309607 -0.747452 0.345887 0 0 255
-0.379282 0.651317 0.354345 76 0 153
-0.357512 -0.220082 -0.026866 76 0 153
-0.046005 -0.573440 0.481954 255 0 0
-0.357512 0.313103 0.242294 76 0 153
-0.166305 0.386227 0.481954 127 0 127
0.360922 0.076274 -0.320825 153 0 76
-0.227596 0.628030 0.142289 0 0 255
-0.379282 0.316216 0.194385 76 0 153
-0.223666 0.472913 0.155031 76 153 0
-0.379282 -0.086609 -0.225044 76 0 153
0.208004 -0.087954 -0.530385 0 0 255
0.360922 -0.536079 0.034334 153 0 76
-0.284613 -0.808922 0.345887 0 0 255
-0.065478 -0.654136 0.345887 0 0 255
-0.306744 -0.243829 -0.530385 0 0 255
0.360922 -0.498220 -0.021048 153 0 76
0.382693 -0.349095 -0.385292 153 0 76
-0.356715 -0.095847 0.258949 127 127 0
0.168291 0.171656 -0.530385 0 0 255
0.159401 -0.569360 0.052642 255 0 0
0.315161 -0.080458 -0.514057 0 0 255
-0.357512 -0.276341 0.274756 76 0 153
-0.240506 0.649800 -0.426760 0 0 255
0.075307 -0.210379 -0.530385 0 0 255
0.382693 -0.337803 -0.301091 153 0 76
-0.379282 -0.263424 -0.318476 76 0 153
-0.098797 -0.291930 -0.530385 0 0 255
0.073969 0.472913 0.266509 76 153 0
0.262309 0.501469 -0.356219 0 127 127
-0.357512 -0.256496 0.062592 76 0 153
-0.337656 -0.569360 -0.358876 255 0 0
0.344057 -0.388988 0.514610 255 0 0
0.171684 -0.563917 -0.538729 153 0 76
-0.243042 -0.569360 0.340679 255 0 0
0.382693 0.616874 -0.276605 153 0 76
-0.153032 -0.558475 0.467267 255 0 0
0.161149 -0.457705 -0.530385 0 0 255
0.328266 -0.607196 0.467146 76 0 153
0.328266 -0.271653 0.472096 76 0 153
-0.379282 -0.245881 0.186047 76 0 153
-0.357512 0.069009 0.288226 76 0 153
0.165951 -0.753623 0.345887 0 0 255
-0.024516 -0.095847 -0.016111 127 127 0
-0.379282 -0.803248 -0.126425 76 0 153
-0.294921 0.486270 0.114819 127 0 127
-0.262265 0.473402 -0.291396 127 0 127
0.091117 -0.095847 -0.468360 127 127 0
0.037142 -0.569360 -0.394149 255 0 0
0.382693 -0.105240 0.102360 153 0 76
-0.379282 -0.679247 -0.443044 76 0 153
-0.379282 -0.342386 0.163732 76 0 153
-0.303573 -0.371619 0.481954 255 0 0
-0.294921 0.576153 -0.251015 127 0 127
-0.007146 -0.759353 0.345887 0 0 255
0.360922 -0.169764 -0.245263 153 0 76
-0.112135 -0.128503 -0.011630 127 127 0
0.293938 0.581767 0.348182 127 127 0
0.310667 0.058619 0.514610 255 0 0
-0.100145 0.674217 0.496458 127 0 127
-0.379282 -0.741961 0.152274 76 0 153
0.360922 -0.379282 0.122238 153 0 76
-0.322404 0.628030 0.133991 0 0 255
0.225008 -0.569360 0.165679 255 0 0
-0.357512 0.124242 0.090206 76 0 153
0.360922 -0.254335 0.155122 153 0 76
0.290382 -0.609369 -0.563041 153 0 76
-0.042208 0.346579 0.481954 76 0 153
0.086732 -0.310783 0.498042 255 0 0
-0.379282 0.495895 0.105027 76 0 153
-0.320094 -0.128503 -0.348119 127 127 0
0.360922 0.059490 -0.413714 153 0 76
-0.246995 -0.738616 0.345887 0 0 255
0.382693 -0.768228 0.105529 204 51 127
-0.294921 0.563994 -0.060362 127 0 127
-0.236822 -0.569360 -0.402046 255 0 0
0.338786 -0.304205 -0.530385 0 0 255
0.360922 0.650759 0.313930 153 0 76
-0.258516 -0.569360 0.101742 255 0 0
0.382693 0.094005 0.362229 153 0 76
0.359786 -0.569360 -0.506949 255 0 0
0.382693 0.625692 -0.125561 153 0 76
0.360922 0.417762 0.048966 153 0 76
0.031375 -0.095847 0.125492 127 127 0
0.360922 -0.444400 -0.085032 153 0 76
-0.357512 0.005860 0.381661 76 0 153
-0.379282 0.451142 -0.463767 76 0 153
0.169823 0.399037 0.449298 76 0 153
0.042882 0.624742 0.481954 153 76 0
0.134031 -0.021997 0.486795 255 0 0
0.294980 0.628030 0.392482 204 51 127
0.348236 -0.666284 -0.563041 153 0 76
0.106170 0.472913 -0.283679 76 153 0
0.033702 -0.095847 0.202360 127 127 0
-0.188901 -0.766490 -0.563041 153 0 76
0.382693 0.281519 0.022687 153 0 76
-0.220253 -0.589007 -0.514057 0 0 255
-0.122916 -0.095847 0.437486 127 127 0
-0.381634 -0.403354 0.500377 255 0 0
0.321761 -0.201513 -0.514057 0 0 255
0.216473 0.405630 0.514610 127 0 127
-0.103211 0.592926 0.481954 127 0 127
0.382693 -0.151580 -0.001536 153 0 76
0.253458 0.631319 0.449298 153 76 0
-0.373406 -0.183910 0.449298 153 0 76
0.133228 0.472913 0.398587 76 153 0
-0.360307 0.682456 -0.277317 76 0 153
-0.379282 0.142017 0.037616 76 0 153
0.295936 0.337248 0.514610 255 0 0
0.360922 -0.220116 -0.175657 153 0 76
-0.139545 0.682456 -0.538524 153 0 76
-0.100084 -0.569360 0.233955 255 0 0
-0.378321 -0.496511 0.449298 153 0 76
0.382693 -0.095517 -0.336215 153 0 76
0.360922 -0.586163 0.010408 153 0 76
-0.163152 -0.095847 -0.218619 127 127 0
0.121521 -0.484864 0.498042 255 0 0
-0.379282 -0.000204 0.113804 76 0 153
-0.247178 0.481077 0.444812 76 153 0
-0.204365 0.673907 0.500598 127 0 127
0.360922 -0.503004 0.073932 153 0 76
0.372045 0.075322 0.514250 255 0 0
-0.099929 0.118544 -0.514057 0 0 255
0.204355 -0.354097 0.498042 255 0 0
-0.084251 0.506010 -0.388875 0 127 127
0.382693 -0.556249 -0.392168 153 0 76
0.328266 0.680873 0.473966 76 0 153
0.332452 -0.095847 -0.121003 127 127 0
0.257077 -0.569360 0.231548 255 0 0
-0.100185 0.481077 0.299594 76 153 0
-0.357512 -0.215469 0.348604 76 0 153
0.360922 -0.070920 -0.255453 153 0 76
-0.088032 0.342141 0.449298 76 0 153
0.382693 -0.507128 0.288989 153 0 76
-0.167189 -0.265413 0.486795 255 0 0
-0.023698 -0.128503 0.444431 127 127 0
0.130666 0.472913 -0.190288 76 153 0
0.159073 0.482905 0.498042 127 0 127
-0.294921 0.577837 0.207430 127 0 127
-0.149847 0.034809 -0.514057 0 0 255
0.336396 0.044592 -0.514057 0 0 255
0.035593 -0.569360 0.183734 255 0 0
0.385414 -0.564989 0.491318 255 0 0
0.382693 -0.741317 0.232659 204 51 127
-0.357512 -0.485455 0.055350 76 0 153
-0.341764 -0.252885 0.514610 255 0 0
0.103035 0.345848 0.513149 255 0 0
0.158253 0.031429 -0.530385 0 0 255
-0.357512 -0.305443 -0.162961 76 0 153
0.123521 -0.128503 0.044499 127 127 0
-0.357512 0.255846 0.005712 76 0 153
-0.379282 -0.392931 0.078052 76 0 153
0.382693 -0.756932 -0.563032 204 51 127
0.143794 -0.569360 -0.132723 255 0 0
-0.357512 -0.600086 -0.522327 76 0 153
0.019815 0.472913 -0.223733 76 153 0
0.143667 0.281764 -0.514057 0 0 255
0.382693 -0.164238 -0.132553 153 0 76
0.311405 -0.569360 0.220871 255 0 0
-0.094107 -0.287559 0.498042 255 0 0
-0.379282 0.452780 0.018129 76 0 153
-0.341710 0.362470 0.481954 153 0 76
0.382693 -0.175765 0.222086 153 0 76
0.087354 -0.095847 -0.207726 127 127 0
0.265675 0.534581 0.049825 127 127 0
0.382693 -0.384841 0.315986 153 0 76
-0.379282 0.514549 -0.122381 76 0 153
-0.294921 0.493916 0.357899 127 0 127
-0.305824 0.451827 0.514610 127 0 127
-0.313493 -0.095847 0.157770 127 127 0
0.187384 0.320643 0.514610 255 0 0
-0.272516 0.649800 -0.187588 0 0 255
0.331713 0.628030 0.061382 204 51 127
-0.250286 0.392403 -0.514057 0 0 255
0.096752 -0.527227 0.511045 255 0 0
0.167965 0.472913 0.031425 76 153 0
-0.032792 -0.128503 -0.344490 127 127 0
-0.235182 -0.128503 -0.010862 127 127 0
0.382693 0.620586 -0.488721 153 0 76
0.249002 -0.450702 0.498042 255 0 0
-0.357512 -0.222384 -0.394373 76 0 153
-0.278940 -0.126391 -0.530385 0 0 255
0.360922 0.539914 -0.365529 153 0 76
-0.224275 -0.128503 -0.151155 127 127 0
0.043083 0.481077 -0.104499 76 153 0
0.070117 -0.569360 -0.487041 255 0 0
0.180357 -0.095847 -0.066558 127 127 0
-0.081418 -0.095847 0.382704 127 127 0
0.147311 -0.124992 -0.530385 0 0 255
0.382693 -0.775680 -0.186320 204 51 127
-0.262265 0.526201 -0.208053 127 0 127
-0.379282 -0.120873 -0.425882 76 0 153
0.360922 0.498606 0.202058 153 0 76
0.360922 -0.599668 0.305636 153 0 76
0.385414 -0.130053 0.491237 255 0 0
-0.004890 0.472913 0.077003 76 153 0
-0.357512 -0.347713 -0.270632 76 0 153
0.117674 -0.024701 -0.514057 0 0 255
0.116416 -0.569360 -0.460626 255 0 0
0.312937 0.600525 -0.530385 0 0 255
0.229770 -0.664341 -0.563041 153 0 76
0.360922 0.352700 -0.410149 153 0 76
0.064223 -0.569360 0.138824 255 0 0
-0.277480 0.649800 0.372285 0 0 255
-0.203671 0.451143 0.460734 0 255 0
0.382693 -0.761583 0.167160 204 51 127
-0.357512 0.323222 0.304546 76 0 153
-0.241716 -0.128503 0.147096 127 127 0
-0.001559 -0.095847 0.284288 127 127 0
0.360922 -0.469792 0.170607 153 0 76
0.368509 0.005409 -0.563041 153 0 76
-0.311786 0.038132 0.514610 255 0 0
-0.296723 -0.468168 0.514610 255 0 0
0.150005 -0.095847 0.170684 127 127 0
-0.357512 0.340587 0.156446 76 0 153
-0.295867 -0.569360 0.061768 255 0 0
0.382693 0.518056 -0.298219 153 0 76
0.021444 -0.095847 -0.241696 127 127 0
0.139127 -0.569360 0.201199 255 0 0
-0.357512 0.155761 0.176859 76 0 153
-0.219818 -0.002854 0.498042 255 0 0
0.319407 0.649800 0.215782 204 51 127
0.360922 0.072348 -0.088089 153 0 76
0.188918 0.472913 -0.198720 76 153 0
-0.083636 0.481077 0.246464 76 153 0
-0.379282 -0.751772 0.267347 76 0 153
-0.228043 -0.128503 0.060895 127 127 0
0.381374 0.527622 0.506604 127 0 127
-0.115211 -0.128503 -0.142098 127 127 0
0.360922 0.141601 0.151524 153 0 76
0.290374 0.186555 0.502142 255 0 0
0.265675 0.463002 0.279287 127 127 0
0.036012 0.528025 -0.356219 0 127 127
-0.114460 -0.569360 0.304031 255 0 0
-0.379282 -0.044687 -0.033675 76 0 153
0.333954 -0.087062 0.514610 255 0 0
-0.075716 0.452680 -0.530385 0 0 255
0.382693 -0.067324 0.000711 153 0 76
0.243344 0.555603 -0.514057 0 0 255
0.360922 0.107257 -0.188567 153 0 76
0.382693 -0.354098 -0.236250 153 0 76
-0.327574 -0.569360 -0.305482 255 0 0
-0.193969 0.472913 0.362839 76 153 0
0.220621 0.652725 -0.563041 153 0 76
-0.120639 0.311672 0.514610 255 0 0
0.073568 -0.062878 -0.514057 0 0 255
-0.225168 -0.028312 -0.530385 0 0 255
-0.379282 -0.659521 0.123637 76 0 153
0.194568 0.581767 -0.388196 0 127 127
0.299575 -0.338154 0.511872 255 0 0
0.236291 -0.520150 -0.514057 0 0 255
-0.143803 -0.128503 0.342487 127 127 0
0.382693 0.320665 0.176233 153 0 76
0.382693 -0.430517 0.375019 153 0 76
0.129347 0.620722 -0.514057 0 0 255
0.094618 0.563011 0.449298 0 255 0
0.288701 -0.128503 0.187959 127 127 0
-0.357512 -0.288368 -0.403865 76 0 153
-0.182952 0.581767 0.460284 0 255 0
0.263277 0.087184 0.486795 255 0 0
-0.357512 -0.023990 -0.114299 76 0 153
-0.338635 0.222722 -0.530385 0 0 255
0.288927 0.645689 0.514610 127 0 127
0.382693 -0.011701 0.447115 153 0 76
-0.062205 -0.354900 0.486795 255 0 0
-0.357512 0.101141 0.173528 76 0 153
0.358038 0.617518 0.481954 127 0 127
-0.379282 0.331502 -0.102377 76 0 153
-0.271616 0.334125 0.455735 76 0 153
0.382693 -0.153502 -0.309063 153 0 76
-0.028377 -0.514117 -0.530385 0 255 0
0.331701 0.628030 -0.104711 204 51 127
0.382693 -0.459962 -0.414667 153 0 76
-0.109664 0.534812 -0.514057 0 0 255
-0.190580 -0.128503 -0.382195 127 127 0
0.328266 0.216482 0.462726 76 0 153
0.039887 0.181332 -0.514057 0 0 255
0.360922 0.577338 0.410625 153 0 76
-0.123147 -0.128503 -0.059528 127 127 0
-0.379282 -0.062497 -0.437955 76 0 153
0.382693 0.379229 -0.110505 153 0 76
-0.379282 -0.691178 -0.358560 76 0 153
0.245269 -0.460230 -0.514057 0 0 255
0.240563 -0.615623 0.493269 255 0 0
0.360922 0.386012 0.004016 153 0 76
0.292174 -0.077354 0.481954 255 0 0
-0.241462 -0.428746 -0.514057 0 0 255
0.171480 -0.095847 0.362043 127 127 0
-0.294921 0.562369 -0.159224 127 0 127
0.360922 -0.169741 -0.393602 153 0 76
-0.268145 -0.642653 0.345887 0 0 255
-0.295096 -0.569360 0.156473 255 0 0
-0.163996 0.472913 -0.199222 76 153 0
-0.357512 0.386773 0.380456 76 0 153
-0.253267 0.472913 0.247587 76 153 0
-0.227730 -0.095847 -0.490954 127 127 0
0.382693 -0.817331 0.080326 204 51 127
-0.373096 0.531288 0.509571 127 0 127
-0.333788 0.680949 0.449298 153 0 76
0.154625 0.454035 -0.356219 0 127 127
-0.216857 0.468754 0.506207 127 0 127
-0.379282 0.219776 0.082746 76 0 153
0.235978 0.245484 -0.530385 0 0 255
0.360922 -0.392912 0.207133 153 0 76
-0.100419 0.451143 0.451744 0 255 0
0.341791 0.175381 -0.530385 0 0 255
0.382693 -0.424018 -0.186931 153 0 76
0.215359 -0.569360 -0.308448 255 0 0
-0.357512 -0.573425 0.189496 76 0 153
0.382693 -0.141774 0.375716 153 0 76
-0.055596 0.159560 0.486795 255 0 0
0.382693 -0.799241 -0.513925 204 51 127
-0.357512 0.206428 0.338431 76 0 153
-0.357512 -0.378612 -0.057416 76 0 153
-0.031829 -0.080015 -0.514057 0 0 255
-0.379282 0.576529 -0.449680 76 0 153
-0.379282 -0.708251 0.207474 76 0 153
0.057032 0.472913 0.369669 76 153 0
-0.188723 -0.819658 0.345887 0 0 255
-0.067296 -0.095847 -0.370931 127 127 0
0.037781 -0.126597 0.449298 127 127 0
0.078655 0.544773 0.498042 127 0 127
-0.379282 0.115289 -0.504696 76 0 153
-0.357512 0.496957 0.224224 76 0 153
0.360922 0.632278 0.401259 153 0 76
0.220418 0.481077 0.122623 76 153 0
0.191449 -0.128503 0.331200 127 127 0
-0.390168 0.148896 0.461882 153 0 76
-0.357512 -0.049282 0.375526 76 0 153
0.298331 0.512508 0.148746 127 127 0
0.300225 0.289753 -0.514057 0 0 255
-0.255504 0.649800 0.253114 0 0 255
0.054738 -0.128503 -0.086649 127 127 0
-0.105512 0.581767 -0.358443 0 127 127
0.206063 -0.128503 -0.325237 127 127 0
-0.037684 0.481077 0.129916 76 153 0
0.360922 0.586335 0.047990 153 0 76
-0.251011 -0.128503 -0.398146 127 127 0
-0.357512 -0.186985 0.299848 76 0 153
0.344457 0.164882 0.514610 255 0 0
0.382693 0.517668 -0.233701 153 0 76
-0.044725 0.452017 0.449298 0 255 0
-0.256252 0.399064 0.449298 76 0 153
0.382693 -0.058418 0.336775 153 0 76
0.049553 -0.128503 -0.007451 127 127 0
-0.188654 -0.095847 0.407839 127 127 0
0.226239 -0.325578 -0.530385 0 0 255
-0.100464 0.655094 -0.530385 153 0 76
0.078549 -0.622048 -0.563041 153 0 76
-0.379282 0.420899 0.290235 76 0 153
0.247683 -0.208666 0.498042 255 0 0
0.355198 0.366994 -0.514057 0 0 255
-0.138447 0.526793 0.498042 127 0 127
-0.357512 0.165286 -0.051223 76 0 153
0.368864 -0.547152 0.449298 76 0 153
-0.144748 0.387936 -0.514057 0 0 255
-0.359851 0.317060 0.514610 255 0 0
0.360922 -0.239057 0.379740 153 0 76
-0.357512 -0.172288 -0.283416 76 0 153
-0.357512 0.043158 -0.436118 76 0 153
-0.382559 -0.448401 0.449298 153 0 76
-0.199561 0.472913 0.110749 76 153 0
-0.357512 -0.327215 0.336355 76 0 153
-0.344198 0.246350 0.481954 255 0 0
-0.115746 0.244362 -0.530385 0 0 255
0.382693 -0.650777 -0.140504 204 51 127
-0.379282 -0.765895 -0.548519 76 0 153
-0.357512 0.252158 0.120144 76 0 153
0.382693 -0.430709 -0.530282 153 0 76
0.012059 -0.128503 -0.143823 127 127 0
-0.231421 -0.095847 0.349173 127 127 0
0.360922 0.100778 0.207029 153 0 76
0.382693 0.283412 -0.356979 153 0 76
-0.344865 0.649800 -0.401959 0 0 255
0.120355 0.167187 -0.514057 0 0 255
0.211140 -0.095847 -0.172073 127 127 0
-0.357512 -0.372078 -0.183208 76 0 153
-0.379282 0.081017 -0.550624 76 0 153
0.020239 -0.095847 0.334622 127 127 0
0.056832 -0.472185 -0.514057 0 0 255
0.382693 0.391995 0.137356 153 0 76
-0.379282 0.485418 -0.037575 76 0 153
0.360922 -0.089975 0.151535 153 0 76
0.298331 0.452682 0.173805 127 127 0
0.382693 0.560979 0.151887 153 0 76
-0.337777 0.145464 0.514610 255 0 0
0.361283 0.682456 -0.355069 153 0 76
-0.120420 -0.128503 0.046175 127 127 0
-0.379282 0.336609 -0.204030 76 0 153
0.291717 -0.154635 -0.530385 0 0 255
0.046418 -0.569360 0.384005 255 0 0
-0.287890 -0.686379 -0.563041 153 0 76
0.166150 -0.095847 -0.368684 127 127 0
-0.338978 0.649800 -0.145285 0 0 255
0.360922 -0.480987 0.382446 153 0 76
-0.379282 -0.441730 0.253995 76 0 153
0.057468 -0.095847 0.407938 127 127 0
-0.243022 -0.095847 0.445147 127 127 0
-0.165281 0.472913 -0.057784 76 153 0
-0.357512 0.191737 0.390689 76 0 153
-0.261568 0.248413 -0.514057 0 0 255
-0.306462 0.408383 0.481954 127 0 127
0.273165 -0.569360 -0.159602 255 0 0
0.142836 -0.569360 -0.261426 255 0 0
-0.357512 0.674106 0.266978 76 0 153
0.382693 -0.691840 0.226808 204 51 127
-0.182319 0.538469 0.481954 0 255 0
0.296394 -0.095847 -0.309712 127 127 0
0.360922 -0.073116 0.268687 153 0 76
0.360922 0.507310 0.111701 153 0 76
-0.379282 -0.758616 0.102612 76 0 153
0.046991 0.472913 0.099004 76 153 0
0.382693 -0.081432 -0.433426 153 0 76
-0.357512 -0.558312 0.128693 76 0 153
0.134413 0.494599 0.449298 0 255 0
-0.262265 0.538753 -0.331478 127 0 127
-0.011209 -0.095847 0.175705 127 127 0
0.205085 -0.102228 0.498042 255 0 0
-0.054333 -0.095847 -0.141314 127 127 0
-0.379282 -0.405926 -0.326012 76 0 153
-0.264341 -0.569360 -0.492027 255 0 0
0.382693 -0.465636 0.093750 153 0 76
0.360922 0.456758 -0.217884 153 0 76
-0.186179 -0.608992 -0.563041 153 0 76
-0.078837 0.014025 0.498042 255 0 0
0.041920 0.406802 0.514610 127 0 127
-0.357512 -0.008521 -0.278259 76 0 153
-0.379282 0.534809 -0.489823 76 0 153
0.068518 -0.128503 0.219105 127 127 0
0.360922 0.361056 0.235103 153 0 76
-0.262265 0.539725 0.013062 127 0 127
-0.357512 -0.586411 0.298710 76 0 153
0.070574 0.559564 -0.563041 153 0 76
0.236103 0.182144 0.486795 255 0 0
0.122901 0.399437 0.456205 76 0 153
0.110430 0.481077 -0.147728 76 153 0
-0.381822 0.646460 0.497882 127 0 127
-0.320047 -0.095847 -0.175686 127 127 0
-0.004339 -0.038018 -0.530385 0 0 255
0.360922 0.068056 -0.274204 153 0 76
0.382693 0.141821 -0.452566 153 0 76
-0.357512 0.046583 0.022871 76 0 153
0.215776 -0.818022 0.345887 0 0 255
0.364329 -0.146298 -0.563041 153 0 76
-0.357512 -0.333574 -0.377565 76 0 153
-0.379282 -0.762848 -0.458898 76 0 153
0.272837 -0.095847 -0.132230 127 127 0
0.147070 -0.529515 -0.514057 0 0 255
-0.377590 -0.266572 -0.563041 76 0 153
0.284979 -0.481123 0.486795 255 0 0
-0.379282 0.595533 0.079613 76 0 153
-0.379282 0.290444 0.446273 76 0 153
-0.379282 0.172853 -0.376124 76 0 153
0.360922 0.172531 -0.279384 153 0 76
0.382693 -0.448496 0.288395 153 0 76
0.382693 -0.054844 -0.211554 153 0 76
-0.342232 0.628030 -0.521598 0 0 255
-0.379282 -0.510946 -0.506945 76 0 153
-0.189551 -0.112169 -0.514057 0 0 255
0.253112 0.304610 -0.514057 0 0 255
-0.343429 -0.498760 0.514610 255 0 0
0.128433 0.546341 -0.388875 0 127 127
-0.379282 -0.566195 -0.306959 76 0 153
-0.005743 -0.095847 -0.094402 127 127 0
-0.269718 0.649800 -0.033990 0 0 255
0.074920 0.451143 0.478867 0 255 0
-0.379282 0.467372 0.336351 76 0 153
0.380836 0.478685 -0.563041 153 0 76
0.382693 0.316925 0.388298 153 0 76
0.157384 -0.389497 0.498042 255 0 0
0.253622 -0.128503 0.314515 127 127 0
-0.140422 0.481077 -0.239036 76 153 0
0.360922 0.133667 -0.402324 153 0 76
-0.008970 0.481077 0.313938 76 153 0
-0.023966 0.481077 -0.138652 76 153 0
-0.169801 -0.667626 -0.563041 153 0 76
0.230298 0.648442 -0.142066 204 51 127
0.173798 -0.569360 0.005243 255 0 0
-0.355484 -0.095847 -0.388281 127 127 0
-0.164788 -0.213445 0.486795 255 0 0
-0.134542 -0.522357 -0.530385 0 0 255
0.145039 -0.095847 -0.104947 127 127 0
-0.335869 -0.569360 0.346022 255 0 0
0.139568 0.431704 0.514610 127 0 127
0.360922 0.380901 -0.195024 153 0 76
-0.357512 0.587389 -0.165111 76 0 153
-0.207636 -0.464643 -0.514057 0 0 255
-0.379282 0.433225 0.395003 76 0 153
0.003407 0.596849 0.514610 127 0 127
0.153767 0.667247 -0.530385 153 0 76
0.382693 0.669152 0.082361 153 0 76
0.281380 0.649800 0.144210 204 51 127
0.360922 0.001390 0.167531 153 0 76
0.338066 -0.419314 -0.514057 0 0 255
0.382693 -0.129082 -0.163387 153 0 76
0.360922 0.170594 0.416074 153 0 76
0.249463 0.472913 -0.235899 76 153 0
0.360922 -0.116015 0.418617 153 0 76
0.265958 0.451143 0.355936 127 127 0
0.360922 0.022713 0.384407 153 0 76
0.298331 0.465617 0.446029 127 127 0
-0.291947 -0.126221 0.510318 255 0 0
-0.357512 0.421469 -0.331502 76 0 153
-0.190570 -0.549155 -0.514057 0 0 255
-0.256789 -0.047128 0.486795 255 0 0
-0.265064 0.581767 0.039991 127 0 127
-0.093590 -0.095847 0.269655 127 127 0
0.247984 -0.063318 0.486795 255 0 0
-0.379282 -0.686666 0.319362 76 0 153
-0.290958 0.581767 0.082813 127 0 127
-0.103860 -0.597541 0.449298 255 0 0
-0.149592 -0.569360 -0.288030 255 0 0
0.382693 -0.547825 0.112495 153 0 76
0.001050 -0.564376 0.481954 255 0 0
-0.014953 -0.095847 0.121271 127 127 0
-0.357512 0.084726 0.410974 76 0 153
0.360922 0.678350 0.407572 153 0 76
-0.357512 -0.124391 -0.309359 76 0 153
-0.166964 0.472913 -0.292949 76 153 0
-0.348204 -0.817211 -0.563041 153 0 76
-0.201532 -0.569360 0.247454 255 0 0
-0.325314 -0.071830 -0.530385 0 0 255
0.329348 0.354572 0.481954 76 0 153
-0.206826 0.472913 0.269249 76 153 0
-0.255871 -0.569360 -0.291178 255 0 0
-0.132246 0.663402 0.449298 153 76 0
0.360922 0.632210 -0.060831 153 0 76
0.360922 0.526777 -0.041122 153 0 76
0.360528 -0.688542 0.345887 0 0 255
0.382693 -0.778989 -0.404356 204 51 127
-0.335690 0.513310 -0.530385 0 0 255
-0.261896 -0.095847 0.289712 127 127 0
-0.236741 -0.095847 -0.181614 127 127 0
0.360922 0.126364 0.069217 153 0 76
0.360922 -0.214051 0.129768 153 0 76
-0.137629 -0.128503 0.140273 127 127 0
-0.351281 0.649800 0.105022 0 0 255
0.157052 -0.773631 -0.563041 153 0 76
-0.241696 0.174036 0.498042 255 0 0
0.326828 -0.800876 -0.563041 153 0 76
0.298331 0.517822 -0.196227 127 127 0
-0.216837 0.617144 0.468360 153 76 0
-0.057538 -0.563917 -0.560992 153 0 76
0.039147 0.451143 -0.364148 0 127 127
-0.196918 0.309021 0.514610 255 0 0
-0.357512 0.407288 -0.133825 76 0 153
-0.379282 0.532960 -0.353350 76 0 153
-0.328268 0.628030 -0.280110 0 0 255
-0.183895 -0.015382 -0.514057 0 0 255
0.007206 -0.569360 -0.326683 255 0 0
-0.318996 -0.095847 0.408108 127 127 0
0.107791 0.521013 -0.356219 0 127 127
0.360922 0.114877 -0.056007 153 0 76
0.382693 0.259364 -0.036383 153 0 76
-0.357512 0.415243 0.197654 76 0 153
-0.357512 0.595398 -0.294615 76 0 153
0.020582 0.530932 0.540339 76 153 0
-0.379282 -0.082416 0.143321 76 0 153
-0.357512 0.592158 -0.373201 76 0 153
-0.294921 0.533775 0.173670 127 0 127
-0.379282 -0.399239 -0.464804 76 0 153
-0.009846 -0.675495 -0.563041 153 0 76
0.216649 0.520269 -0.356219 0 127 127
0.360922 -0.026794 -0.064551 153 0 76
-0.379282 -0.661067 -0.104126 76 0 153
0.382693 -0.583446 -0.049560 153 0 76
0.092250 -0.128503 0.364003 127 127 0
0.249758 0.673246 -0.530385 153 0 76
-0.383278 0.478320 0.449298 153 0 76
0.382693 -0.772029 -0.070492 204 51 127
-0.173005 0.491807 0.449298 0 255 0
-0.066398 -0.359275 -0.514057 0 0 255
-0.264868 0.581767 0.335081 127 0 127
-0.390168 0.579645 0.458486 153 0 76
-0.324855 0.630803 0.470116 153 0 76
0.319685 -0.462790 -0.530385 0 0 255
0.360922 0.374316 0.436194 153 0 76
0.238413 0.459689 -0.356219 0 127 127
0.034089 0.566903 0.498042 127 0 127
0.324535 0.649800 -0.451245 204 51 127
-0.390168 -0.602293 0.480219 153 0 76
0.382693 0.390867 -0.300786 153 0 76
-0.142024 0.231121 0.486795 255 0 0
-0.338843 0.299959 -0.514057 0 0 255
-0.032849 0.282470 -0.514057 0 0 255
-0.121503 -0.473685 0.486795 255 0 0
-0.030358 -0.128503 -0.473558 127 127 0
-0.379282 0.588566 0.251751 76 0 153
-0.357512 -0.299466 -0.028484 76 0 153
0.362555 0.682456 -0.305763 153 0 76
-0.357512 0.094546 -0.127632 76 0 153
0.296582 -0.095847 0.146732 127 127 0
-0.357512 0.109676 0.012252 76 0 153
-0.357512 -0.383841 0.238234 76 0 153
-0.379282 0.651553 -0.069386 76 0 153
-0.069583 0.578727 -0.514057 0 0 255
-0.357512 -0.572010 0.062086 76 0 153
0.298331 0.453016 0.013471 127 127 0
0.382693 -0.243388 -0.500528 153 0 76
0.016969 -0.232392 -0.530385 0 0 255
0.393578 0.060684 0.458187 76 0 153
-0.047042 0.594402 -0.563041 153 0 76
0.340149 -0.095847 0.051130 127 127 0
-0.226887 0.637331 -0.528759 0 0 255
0.059296 0.576573 -0.356219 0 127 127
-0.135938 -0.064329 0.498042 255 0 0
0.272048 0.377504 0.481954 76 0 153
0.360922 -0.075765 -0.524754 153 0 76
0.382693 -0.784460 -0.350090 204 51 127
-0.223056 0.109374 -0.514057 0 0 255
0.382693 -0.611813 0.049264 153 0 76
0.125859 -0.563917 -0.556754 153 0 76
-0.379282 0.417383 -0.077599 76 0 153
-0.232083 -0.569360 0.412188 255 0 0
-0.379282 -0.606950 -0.394295 76 0 153
0.360922 0.195326 -0.402993 153 0 76
0.360922 0.639987 0.023362 153 0 76
0.069206 -0.125987 -0.530385 0 0 255
0.039468 0.133906 -0.514057 0 0 255
-0.200257 0.581767 -0.369497 0 127 127
-0.334485 -0.128503 0.282309 127 127 0
-0.088751 -0.569360 0.387996 255 0 0
0.360922 -0.500770 -0.156560 153 0 76
0.124612 0.472913 0.061638 76 153 0
-0.102800 -0.569360 0.042647 255 0 0
-0.063572 -0.140747 0.498042 255 0 0
0.382693 -0.351091 -0.512924 153 0 76
-0.357512 -0.616276 0.398767 76 0 153
-0.028707 0.581767 0.465745 0 255 0
0.382693 -0.019646 -0.362184 153 0 76
0.143894 -0.095847 -0.029294 127 127 0
0.360922 -0.612536 -0.280953 153 0 76
0.069242 0.481077 0.221937 76 153 0
-0.379282 0.323202 0.115537 76 0 153
0.265050 0.628030 -0.242395 204 51 127
0.382693 -0.001872 -0.508888 153 0 76
-0.379282 0.208337 -0.546800 76 0 153
-0.152220 -0.074090 -0.514057 0 0 255
0.311124 0.628030 0.005387 204 51 127
-0.184517 -0.128503 0.031887 127 127 0
0.298331 0.544069 0.473937 127 127 0
-0.020960 0.074543 0.498042 255 0 0
-0.357512 -0.084251 0.065882 76 0 153
0.095729 -0.569360 0.382101 255 0 0
-0.020159 -0.356567 -0.514057 0 0 255
-0.357512 0.358085 -0.357432 76 0 153
-0.275315 0.649800 0.047048 0 0 255
-0.357512 0.289191 -0.118782 76 0 153
0.382693 -0.417419 -0.316482 153 0 76
0.336458 -0.569360 -0.023938 255 0 0
0.382693 -0.258056 -0.402518 153 0 76
0.103888 -0.569360 0.297350 255 0 0
0.046260 0.582817 -0.514057 0 0 255
-0.357512 0.519807 0.301269 76 0 153
0.259201 -0.095847 -0.228573 127 127 0
0.360922 -0.067165 0.411930 153 0 76
0.215774 -0.095847 0.403709 127 127 0
0.133221 -0.128503 -0.176121 127 127 0
-0.316485 -0.619664 0.449298 255 0 0
-0.379282 -0.284226 0.313713 76 0 153
0.382693 -0.499279 -0.499803 153 0 76
0.187805 -0.569360 -0.395147 255 0 0
0.049221 -0.095847 -0.278271 127 127 0
-0.112020 0.481077 0.064192 76 153 0
-0.379282 -0.577748 0.386877 76 0 153
0.300743 -0.169816 0.514610 255 0 0
0.198299 -0.095847 0.146962 127 127 0
0.166425 -0.255715 0.498042 255 0 0
-0.357512 -0.003542 -0.364091 76 0 153
-0.097458 -0.569360 0.100644 255 0 0
0.382693 0.428207 0.344058 153 0 76
0.263520 0.021217 -0.514057 0 0 255
-0.357512 -0.231288 -0.483324 76 0 153
0.033580 -0.668568 0.345887 0 0 255
0.052424 0.050267 -0.514057 0 0 255
-0.000612 0.336607 -0.514057 0 0 255
-0.310399 -0.095847 0.222044 127 127 0
0.091196 0.322257 -0.514057 0 0 255
-0.337668 -0.095847 -0.026894 127 127 0
-0.322341 0.649800 0.234135 0 0 255
0.382693 0.562597 -0.229981 153 0 76
-0.014503 -0.262771 0.486795 255 0 0
-0.379282 -0.802338 -0.055521 76 0 153
0.274872 0.628030 0.084055 204 51 127
-0.264566 -0.128503 -0.079691 127 127 0
-0.379282 -0.603189 -0.219964 76 0 153
-0.170118 -0.156390 -0.530385 0 0 255
-0.357512 -0.328558 0.113668 76 0 153
-0.217705 0.094333 0.498042 255 0 0
0.360922 0.060293 0.029907 153 0 76
-0.357512 -0.572402 -0.084845 76 0 153
-0.379282 0.477595 0.188483 76 0 153
-0.379282 -0.779527 -0.406029 76 0 153
0.360922 0.325945 -0.490265 153 0 76
0.382693 -0.720253 -0.104567 204 51 127
0.360922 -0.438735 0.128555 153 0 76
0.382693 0.056765 -0.052008 153 0 76
0.108560 -0.569360 -0.094522 255 0 0
-0.227569 0.185321 -0.514057 0 0 255
0.382693 -0.716302 -0.278990 204 51 127
0.298331 0.580983 0.432350 127 127 0
-0.249624 0.472913 -0.138920 76 153 0
-0.357512 0.575929 0.363297 76 0 153
-0.257601 0.434679 0.481954 127 0 127
0.146637 -0.063327 -0.514057 0 0 255
-0.294921 0.451163 0.402767 127 0 127
0.340743 -0.569360 0.279417 255 0 0
0.044854 0.337134 0.481954 255 0 0
-0.085761 0.505621 0.449298 0 255 0
0.207992 0.008746 0.486795 255 0 0
-0.283596 -0.311994 -0.514057 0 0 255
-0.227335 -0.569360 0.186429 255 0 0
0.052406 -0.695176 -0.563041 153 0 76
0.360922 -0.026175 0.304043 153 0 76
-0.294921 0.499077 0.282868 127 0 127
0.188444 -0.095847 -0.226267 127 127 0
-0.379282 -0.644800 0.073733 76 0 153
0.184105 -0.569360 0.184572 255 0 0
0.360922 -0.359925 -0.141676 153 0 76
0.360922 0.006784 -0.202995 153 0 76
0.015848 -0.128503 -0.443085 127 127 0
-0.379282 -0.495623 -0.133030 76 0 153
-0.124710 -0.095847 -0.241556 127 127 0
-0.053693 0.472913 -0.203334 76 153 0
0.050824 0.301040 -0.514057 0 0 255
-0.379282 -0.694595 0.033237 76 0 153
0.200471 0.542831 -0.514057 0 0 255
0.360922 -0.345218 0.020900 153 0 76
-0.332220 -0.546554 -0.530385 0 255 0
0.027470 -0.128503 -0.362393 127 127 0
-0.294921 0.577240 0.372112 127 0 127
-0.168006 0.194106 -0.530385 0 0 255
-0.357512 0.190777 -0.112384 76 0 153
-0.208569 -0.430240 0.498042 255 0 0
-0.357512 -0.551428 -0.015839 76 0 153
0.382693 -0.033179 -0.276568 153 0 76
0.280244 0.551832 -0.553227 153 0 76
-0.126113 -0.569360 -0.080782 255 0 0
-0.294921 0.473255 -0.375875 127 0 127
0.335349 -0.569360 0.164051 255 0 0
-0.379282 0.005169 -0.202413 76 0 153
0.171335 0.415186 -0.514057 0 0 255
-0.379282 0.565995 -0.070142 76 0 153
0.039573 0.472913 0.002852 76 153 0
0.382693 0.644137 -0.179119 153 0 76
-0.357512 0.242915 0.266741 76 0 153
-0.169338 0.631460 0.481954 127 0 127
-0.069181 -0.790921 0.345887 0 0 255
0.360922 -0.347890 -0.096655 153 0 76
-0.357512 -0.302186 -0.319164 76 0 153
0.110583 0.632149 0.514610 127 0 127
0.297988 0.287417 0.481954 255 0 0
0.291499 0.469524 0.506013 127 0 127
-0.379282 0.268165 -0.165860 76 0 153
-0.277466 -0.508131 -0.514057 0 0 255
0.232309 -0.128503 -0.113790 127 127 0
-0.033453 -0.128503 -0.044875 127 127 0
0.360922 0.474063 0.048373 153 0 76
0.264135 0.472913 -0.012563 76 153 0
-0.379282 -0.007579 -0.058510 76 0 153
-0.379282 -0.702909 0.114212 76 0 153
0.382693 0.080054 0.112814 153 0 76
-0.294921 0.455740 0.335249 127 0 127
0.360922 0.568718 0.289499 153 0 76
0.310301 0.682456 -0.540378 153 0 76
-0.101127 0.481077 -0.031920 76 153 0
-0.218647 0.273630 -0.514057 0 0 255
-0.227408 0.481077 -0.227248 76 153 0
0.206739 -0.528330 0.481954 255 0 0
0.079532 -0.533631 -0.514057 0 0 255
0.022398 -0.379405 0.486795 255 0 0
-0.316700 -0.095847 0.045948 127 127 0
0.360922 0.279433 0.417483 153 0 76
-0.357512 -0.560468 -0.158250 76 0 153
0.382693 -0.297539 0.072479 153 0 76
-0.379282 0.111046 0.260828 76 0 153
-0.020525 0.682456 0.462848 153 76 0
-0.140469 -0.095847 -0.027911 127 127 0
0.230672 0.481077 0.402916 76 153 0
-0.030893 -0.095847 0.410187 127 127 0
0.382693 -0.384886 0.245671 153 0 76
0.341548 0.628030 -0.346484 204 51 127
0.265675 0.543543 0.235773 127 127 0
0.382693 -0.240330 -0.142865 153 0 76
-0.357512 -0.099364 -0.133695 76 0 153
0.344106 0.415215 0.481954 127 0 127
0.279398 -0.128503 -0.065143 127 127 0
0.383898 0.669311 0.503012 127 0 127
-0.379282 -0.322162 0.035759 76 0 153
-0.148997 0.119738 -0.530385 0 0 255
0.324493 -0.095847 0.339497 127 127 0
0.266700 -0.164473 0.486795 255 0 0
-0.286757 -0.087172 0.483530 255 0 0
0.034652 -0.025221 -0.514057 0 0 255
-0.062662 0.398464 0.514610 127 0 127
0.262188 -0.569360 -0.024197 255 0 0
0.112448 -0.594927 0.481954 255 0 0
0.360922 0.500560 0.349849 153 0 76
0.212310 0.146935 -0.514057 0 0 255
-0.357512 0.641141 0.403519 76 0 153
-0.379282 -0.123449 0.096526 76 0 153
-0.294921 0.500391 0.220845 127 0 127
-0.193029 -0.128503 0.167704 127 127 0
-0.379282 0.310249 -0.415110 76 0 153
-0.379282 -0.537632 0.430508 76 0 153
0.010545 0.224485 0.486795 255 0 0
-0.197863 -0.569360 0.078256 255 0 0
-0.170757 0.627478 -0.514057 0 0 255
-0.357512 -0.192656 -0.162447 76 0 153
-0.221810 -0.612896 0.345887 0 0 255
-0.056532 -0.128503 0.334154 127 127 0
-0.329279 -0.569360 -0.458726 255 0 0
0.298331 0.535080 0.303706 127 127 0
0.382693 -0.165499 0.154589 153 0 76
0.382693 -0.771666 -0.238400 204 51 127
0.360922 -0.300249 -0.313050 153 0 76
0.043746 -0.095847 -0.170669 127 127 0
0.296273 -0.116800 0.449298 127 127 0
0.323622 -0.040465 -0.530385 0 0 255
0.323030 0.649800 0.158429 204 51 127
-0.112140 -0.095847 -0.480188 127 127 0
-0.379282 0.343063 0.266603 76 0 153
-0.379282 -0.280452 0.096013 76 0 153
-0.037645 -0.569360 -0.175414 255 0 0
-0.327076 0.628030 -0.335129 0 0 255
-0.294921 0.515772 -0.004019 127 0 127
-0.347522 0.649800 0.315993 0 0 255
0.360922 0.003356 -0.116067 153 0 76
-0.379282 0.121305 -0.391236 76 0 153
0.360922 0.227160 -0.506759 153 0 76
-0.166514 -0.569360 -0.048616 255 0 0
-0.357512 -0.428708 -0.246987 76 0 153
-0.390168 -0.057058 0.464535 153 0 76
0.360922 -0.287373 -0.143680 153 0 76
-0.379282 -0.792434 0.329963 76 0 153
0.382693 0.244629 -0.263617 153 0 76
0.032167 0.472913 0.405789 76 153 0
-0.240576 -0.095847 -0.103104 127 127 0
0.382693 -0.668102 0.080102 204 51 127
-0.082548 -0.128503 -0.076028 127 127 0
0.353373 0.541318 -0.514057 0 0 255
0.349909 0.649800 -0.279473 204 51 127
0.108507 -0.113504 0.498042 255 0 0
-0.338974 -0.452601 -0.530385 0 0 255
-0.309634 -0.128503 -0.038746 127 127 0
0.047903 0.387174 0.449298 76 0 153
0.382693 -0.375955 -0.003174 153 0 76
-0.379282 0.253816 -0.377556 76 0 153
-0.183064 -0.569360 0.151740 255 0 0
0.360922 0.431926 -0.176904 153 0 76
-0.379282 0.151511 0.313048 76 0 153
-0.258515 0.628030 -0.339976 0 0 255
0.370587 -0.363680 0.481954 76 0 153
0.344003 -0.232165 0.481954 255 0 0
0.026648 0.441000 -0.530385 0 0 255
-0.161734 -0.447194 -0.530385 0 0 255
-0.379282 0.675989 -0.500657 76 0 153
0.230298 0.641541 -0.413323 204 51 127
-0.379282 -0.557705 0.231753 76 0 153
0.382693 -0.009897 -0.412051 153 0 76
0.360922 0.336247 0.016082 153 0 76
0.328266 0.129246 0.467031 76 0 153
-0.357512 -0.459881 -0.172821 76 0 153
-0.071459 -0.128503 -0.452195 127 127 0
0.360922 -0.086014 -0.372725 153 0 76
-0.215514 -0.128503 -0.057150 127 127 0
-0.263724 0.581767 -0.280871 127 0 127
-0.056442 -0.095847 0.445440 127 127 0
-0.379282 0.426044 0.131119 76 0 153
0.103495 -0.248095 -0.514057 0 0 255
0.254980 0.649800 -0.484130 204 51 127
0.382693 0.263979 0.276890 153 0 76
-0.312108 -0.128503 -0.265804 127 127 0
0.382693 0.630073 -0.371608 153 0 76
-0.294921 0.461000 -0.265487 127 0 127
0.382693 -0.778619 -0.016930 204 51 127
-0.174324 -0.095847 -0.291451 127 127 0
0.218118 0.472913 -0.106998 76 153 0
-0.196020 -0.095847 -0.410368 127 127 0
0.360922 0.266203 0.159799 153 0 76
-0.236489 -0.560942 0.481954 255 0 0
0.360922 -0.543759 -0.175937 153 0 76
-0.379282 0.231437 0.179105 76 0 153
-0.357512 -0.472445 0.364425 76 0 153
0.074220 -0.438592 0.486795 255 0 0
0.201468 0.355755 0.482293 255 0 0
0.165800 -0.110827 0.449298 127 127 0
-0.200888 -0.095847 0.071683 127 127 0
0.360922 0.647776 -0.227519 153 0 76
-0.357512 0.389326 0.319104 76 0 153
-0.357512 -0.448993 -0.301311 76 0 153
-0.350472 0.335295 0.449298 153 0 76
0.126098 0.556148 -0.514057 0 0 255
0.243224 -0.128503 -0.373906 127 127 0
0.382693 -0.158553 -0.089591 153 0 76
0.360922 0.113731 -0.145723 153 0 76
0.382693 0.044158 0.174436 153 0 76
0.327404 -0.531615 0.481954 255 0 0
-0.247922 0.123187 0.486795 255 0 0
0.190720 0.499014 -0.388875 0 127 127
-0.363901 -0.437355 -0.563041 76 0 153
-0.082128 0.309416 -0.514057 0 0 255
-0.357512 -0.354065 -0.544256 76 0 153
0.330413 -0.569360 -0.459614 255 0 0
0.360922 0.103048 -0.243168 153 0 76
0.021477 0.472913 -0.154043 76 153 0
0.360922 -0.427108 -0.273858 153 0 76
-0.100567 -0.128503 -0.394563 127 127 0
0.132784 -0.128503 0.110463 127 127 0
0.298331 0.485658 0.260989 127 127 0
0.349124 -0.503557 0.449298 76 0 153
-0.277922 0.310757 -0.514057 0 0 255
-0.379282 -0.246865 -0.365610 76 0 153
-0.357512 0.138304 -0.272039 76 0 153
0.271409 -0.694149 0.345887 0 0 255
-0.290305 0.451143 0.448974 127 0 127
0.382693 -0.416969 -0.454922 153 0 76
-0.357512 0.297126 -0.202476 76 0 153
-0.379282 -0.092689 -0.533847 76 0 153
0.048575 -0.008463 0.486795 255 0 0
0.134435 0.617231 0.481954 127 0 127
-0.348118 -0.084673 0.481954 153 0 76
-0.379282 -0.436489 -0.084964 76 0 153
-0.379282 -0.058239 0.284364 76 0 153
0.366387 0.644315 0.449298 76 0 153
-0.201773 0.431770 -0.530385 0 0 255
0.360922 -0.526142 0.156810 153 0 76
-0.373624 -0.587978 -0.563041 76 0 153
-0.379282 0.044994 0.427709 76 0 153
0.382693 -0.817670 -0.429189 204 51 127
-0.362555 -0.323346 0.514610 255 0 0
0.382693 -0.738013 -0.501255 204 51 127
0.101425 -0.095847 -0.147882 127 127 0
-0.255406 0.649800 -0.103439 0 0 255
0.287846 -0.573965 0.481954 255 0 0
-0.379282 0.154631 -0.486522 76 0 153
-0.065225 0.328100 0.514610 255 0 0
0.138836 0.058053 0.486795 255 0 0
-0.236266 -0.389316 -0.530385 0 0 255
-0.161580 -0.136128 0.498042 255 0 0
-0.357512 0.180418 -0.198112 76 0 153
-0.379282 0.357580 0.020805 76 0 153
-0.142285 -0.569360 -0.408153 255 0 0
0.359997 0.499694 0.481954 127 0 127
-0.324855 0.588340 0.476540 153 0 76
-0.162990 0.342210 -0.530385 0 0 255
0.111825 0.573443 0.498042 127 0 127
-0.015729 0.399437 0.465825 76 0 153
-0.357512 0.041376 0.121021 76 0 153
0.032684 0.478803 0.449298 0 255 0
0.272770 -0.569360 -0.101318 255 0 0
0.360922 0.459477 -0.492731 153 0 76
0.360922 -0.394527 0.399749 153 0 76
-0.379282 0.398397 -0.254738 76 0 153
0.382693 -0.573295 -0.561993 153 0 76
0.220325 0.442847 0.481954 127 0 127
-0.120151 -0.755913 0.345887 0 0 255
-0.102979 -0.608837 0.345887 0 0 255
0.102446 -0.128503 0.296451 127 127 0
-0.348289 -0.401558 0.449298 153 0 76
-0.277519 -0.095847 -0.273735 127 127 0
-0.238727 -0.696612 0.345887 0 0 255
0.382693 0.426736 -0.277417 153 0 76
-0.324855 -0.161607 0.450032 153 0 76
-0.338282 -0.581801 0.514610 255 0 0
-0.357512 -0.479332 -0.023997 76 0 153
-0.290986 -0.128503 -0.419342 127 127 0
-0.357512 0.503221 -0.375069 76 0 153
0.382693 -0.790953 0.322714 204 51 127
-0.382004 0.226792 0.493174 255 0 0
-0.379282 -0.223362 -0.295962 76 0 153
-0.379282 -0.631410 -0.349206 76 0 153
0.207625 -0.128503 0.102707 127 127 0
0.110275 -0.128503 0.206431 127 127 0
0.360922 -0.123024 -0.055589 153 0 76
0.382693 -0.098824 0.044227 153 0 76
0.015739 -0.095847 0.243885 127 127 0
-0.357512 0.513185 0.429758 76 0 153
0.328266 -0.187275 0.451703 76 0 153
0.097407 -0.128503 -0.360400 127 127 0
-0.357512 -0.011028 -0.498723 76 0 153
-0.197346 -0.095847 -0.159965 127 127 0
-0.366596 -0.117410 0.449298 153 0 76
0.178056 -0.569360 -0.220222 255 0 0
-0.379282 -0.338420 -0.313665 76 0 153
0.382693 -0.315218 0.185397 153 0 76
-0.122542 -0.095847 -0.348160 127 127 0
0.327734 -0.349480 0.481954 255 0 0
0.149099 -0.128503 0.286971 127 127 0
0.131068 0.481077 0.185692 76 153 0
-0.208181 0.358617 0.488758 255 0 0
0.392844 0.153331 0.449298 76 0 153
0.251818 0.472913 0.225251 76 153 0
0.196843 0.322577 -0.530385 0 0 255
0.382693 -0.639857 -0.527662 204 51 127
-0.379282 -0.492148 0.306405 76 0 153
-0.118363 0.637767 0.481954 127 0 127
0.382693 -0.022460 0.096485 153 0 76
-0.250841 -0.095847 -0.227998 127 127 0
0.003342 0.478440 -0.514057 0 0 255
-0.379282 0.659937 -0.312490 76 0 153
0.132733 -0.171634 -0.514057 0 0 255
0.272386 -0.095847 -0.178056 127 127 0
-0.379282 -0.797461 -0.488570 76 0 153
0.147034 -0.128503 -0.399944 127 127 0
0.363863 0.682456 0.170712 153 0 76
0.360922 0.235181 0.372723 153 0 76
-0.242227 0.353997 -0.530385 0 0 255
0.230298 0.644364 -0.363376 204 51 127
0.320324 -0.569360 0.325493 255 0 0
-0.379282 0.039242 -0.274302 76 0 153
0.300213 0.628030 -0.359844 204 51 127
0.265675 0.545973 -0.298613 127 127 0
-0.379282 -0.220793 -0.535063 76 0 153
-0.011483 -0.569360 0.097733 255 0 0
-0.238080 -0.084008 -0.530385 0 0 255
-0.357512 -0.075490 -0.345262 76 0 153
-0.117360 0.472913 0.179477 76 153 0
-0.294921 0.560998 0.297060 127 0 127
-0.095098 0.362359 -0.530385 0 0 255
0.360922 0.237538 0.303515 153 0 76
0.377958 0.296864 -0.563041 153 0 76
0.363054 0.096947 -0.563041 153 0 76
0.205085 -0.128503 -0.077381 127 127 0
0.267302 -0.569360 0.334010 255 0 0
-0.357512 -0.037838 0.032293 76 0 153
-0.158713 -0.095847 0.268554 127 127 0
-0.284817 0.628030 -0.405857 0 0 255
0.245079 -0.128503 0.389358 127 127 0
0.360922 0.461142 -0.428320 153 0 76
0.382693 0.242034 0.004757 153 0 76
-0.198512 0.024346 -0.514057 0 0 255
-0.326741 -0.294879 -0.514057 0 0 255
-0.238427 0.051531 -0.530385 0 0 255
0.334826 -0.128503 -0.091293 127 127 0
-0.370988 -0.365033 0.481954 255 0 0
-0.253476 0.481077 0.400861 76 153 0
0.029339 -0.290999 -0.514057 0 0 255
-0.251049 -0.199496 0.498042 255 0 0
0.382693 -0.699847 -0.192940 204 51 127
-0.373853 -0.527666 0.509384 255 0 0
-0.035458 0.481077 0.048962 76 153 0
0.360922 -0.614450 -0.125008 153 0 76
0.330274 -0.128503 0.366991 127 127 0
-0.357512 -0.423012 0.222370 76 0 153
-0.022833 0.032329 0.498042 255 0 0
-0.138919 0.551832 -0.557591 153 0 76
-0.294921 0.525367 0.391015 127 0 127
0.317017 -0.095847 0.237857 127 127 0
0.375107 -0.421788 0.449298 76 0 153
-0.055581 -0.569360 0.237993 255 0 0
-0.276584 -0.128503 -0.345465 127 127 0
0.290273 -0.569360 0.416708 255 0 0
-0.340336 0.007044 0.514610 255 0 0
0.295349 -0.128503 -0.497438 127 127 0
0.369050 0.682456 -0.396553 153 0 76
-0.357512 0.195336 0.253170 76 0 153
-0.294921 0.537607 0.468299 127 0 127
0.320013 0.210408 -0.514057 0 0 255
0.360922 0.634618 0.147794 153 0 76
-0.006936 -0.551413 -0.514057 0 0 255
0.158183 0.651942 0.449298 153 76 0
0.053458 -0.567025 0.481954 255 0 0
0.382693 -0.477887 0.205801 153 0 76
-0.080644 -0.095847 0.123603 127 127 0
-0.262265 0.551193 0.208618 127 0 127
0.382693 -0.228028 -0.540265 153 0 76
0.045757 -0.176333 -0.514057 0 0 255
-0.357512 0.550590 0.005669 76 0 153
0.152328 -0.724356 -0.563041 153 0 76
0.215994 0.587674 -0.514057 0 0 255
0.183223 -0.540864 0.514610 255 0 0
0.126964 -0.672426 0.345887 0 0 255
0.081692 0.480860 -0.514057 0 0 255
0.385414 -0.510746 0.493656 255 0 0
0.298331 0.461910 0.105156 127 127 0
0.272136 0.383264 -0.530385 0 0 255
0.216089 -0.569360 0.265296 255 0 0
-0.018897 -0.095847 -0.389418 127 127 0
0.360922 0.603174 -0.186397 153 0 76
0.382693 0.307255 -0.077848 153 0 76
-0.379282 0.029751 -0.350328 76 0 153
0.360922 -0.343725 0.340588 153 0 76
-0.357512 0.475385 -0.149107 76 0 153
-0.379282 -0.035082 -0.530773 76 0 153
-0.270676 -0.128503 0.264679 127 127 0
-0.258490 0.573277 -0.563041 153 0 76
0.360922 0.003725 -0.334815 153 0 76
-0.379282 -0.577479 -0.123913 76 0 153
0.296321 -0.569360 -0.292217 255 0 0
0.360922 0.479948 0.288954 153 0 76
0.123371 0.392048 0.514610 127 0 127
0.343051 -0.554690 0.514610 255 0 0
0.204654 -0.569360 0.376375 255 0 0
0.382693 0.509328 -0.191070 153 0 76
-0.077438 0.481077 0.406624 76 153 0
-0.357512 0.264843 -0.252594 76 0 153
-0.288040 0.405176 -0.530385 0 0 255
-0.251576 0.472913 -0.349274 76 153 0
0.019529 -0.128503 -0.504753 127 127 0
0.258794 -0.569360 0.110044 255 0 0
-0.156653 0.472913 -0.098889 76 153 0
0.007572 -0.751900 -0.563041 153 0 76
0.382693 0.405424 -0.517352 153 0 76
0.166736 -0.569360 -0.302511 255 0 0
0.350361 0.307725 0.481954 255 0 0
-0.294921 0.478015 -0.130556 127 0 127
0.159823 0.473162 -0.514057 0 0 255
0.179920 0.240175 -0.530385 0 0 255
0.293572 -0.128503 -0.148383 127 127 0
0.360922 0.637651 0.274113 153 0 76
-0.379282 0.017744 -0.115426 76 0 153
0.247514 -0.590966 -0.530385 0 0 255
-0.058279 -0.533371 0.481954 255 0 0
0.360922 -0.289675 -0.032771 153 0 76
-0.294893 0.452478 -0.530385 0 0 255
0.382693 0.421329 -0.350369 153 0 76
-0.061270 -0.123470 -0.530385 0 0 255
0.011327 -0.095847 0.067068 127 127 0
-0.109471 0.513005 -0.356219 0 127 127
0.305378 0.625573 -0.563041 153 0 76
0.382693 0.029117 0.073444 153 0 76
-0.102661 -0.569360 -0.468650 255 0 0
-0.050225 -0.258318 -0.530385 0 0 255
0.360922 0.337980 0.305845 153 0 76
-0.163415 -0.095847 0.171213 127 127 0
0.382693 -0.033374 -0.457702 153 0 76
0.382693 0.387376 -0.401805 153 0 76
-0.032367 0.240691 -0.514057 0 0 255
-0.302513 0.649800 0.173030 0 0 255
0.143240 0.080735 -0.530385 0 0 255
-0.281747 -0.128503 -0.478549 127 127 0
0.117643 0.472913 -0.351696 76 153 0
-0.197569 -0.376970 -0.514057 0 0 255
0.236080 0.467360 -0.530385 0 0 255
0.268743 -0.128503 0.107451 127 127 0
-0.357512 -0.267577 0.405707 76 0 153
-0.136982 -0.128503 0.415681 127 127 0
-0.357512 -0.238939 0.140930 76 0 153
0.263834 0.649800 -0.305616 204 51 127
0.360922 0.540148 -0.444875 153 0 76
-0.357512 -0.501303 0.182421 76 0 153
-0.379282 -0.607923 -0.008374 76 0 153
-0.099407 -0.128503 0.364110 127 127 0
0.382693 0.233340 0.086226 153 0 76
0.231299 -0.095847 -0.030405 127 127 0
0.322908 -0.128503 -0.222014 127 127 0
-0.315031 -0.324915 0.514610 255 0 0
-0.214081 0.657178 -0.563041 153 0 76
0.265675 0.539706 -0.142346 127 127 0
-0.379282 -0.191332 -0.126988 76 0 153
-0.379282 -0.722414 -0.562529 76 0 153
0.143872 -0.569360 -0.386565 255 0 0
-0.294272 0.611094 -0.530385 0 0 255
-0.357512 0.096078 -0.030563 76 0 153
-0.016779 0.481077 -0.034552 76 153 0
0.382693 -0.615207 -0.455878 153 0 76
-0.174066 0.481077 -0.008330 76 153 0
0.229225 -0.128503 0.430018 127 127 0
0.289604 0.601928 0.481954 127 0 127
0.265675 0.554520 -0.223484 127 127 0
-0.379282 0.346525 -0.052075 76 0 153
0.096792 -0.095847 0.022773 127 127 0
-0.151255 0.481077 0.040524 76 153 0
-0.357512 -0.302760 -0.098672 76 0 153
-0.037896 -0.767154 -0.563041 153 0 76
0.127942 -0.095847 -0.429368 127 127 0
0.357075 -0.013876 0.514610 255 0 0
-0.379282 0.311726 -0.491363 76 0 153
-0.357512 -0.100351 -0.456911 76 0 153
-0.098744 -0.128503 -0.300901 127 127 0
0.289167 -0.095847 0.381513 127 127 0
0.382693 -0.764396 0.048292 204 51 127
0.382693 -0.589173 -0.314265 153 0 76
0.015890 -0.379471 -0.530385 0 0 255
-0.379282 -0.141993 -0.063986 76 0 153
0.382693 0.222227 -0.150650 153 0 76
0.241702 0.534018 0.481954 0 255 0
0.265675 0.497540 0.122362 127 127 0
0.332543 0.443563 -0.530385 0 0 255
0.299684 -0.379815 -0.514057 0 0 255
0.382693 0.408526 0.195045 153 0 76
0.360922 -0.037464 0.019433 153 0 76
-0.379282 -0.077708 -0.268174 76 0 153
0.058680 0.091296 0.498042 255 0 0
-0.066020 -0.737778 0.345887 0 0 255
0.285162 -0.095847 -0.458620 127 127 0
-0.379282 -0.132960 -0.152784 76 0 153
0.162214 0.324280 0.481954 255 0 0
-0.379282 -0.458759 0.030949 76 0 153
0.263185 0.649800 0.239107 204 51 127
-0.357421 0.454238 0.481954 127 0 127
0.382693 -0.404575 -0.223402 153 0 76
0.316035 -0.458576 0.514610 255 0 0
0.007880 0.601953 -0.514057 0 0 255
-0.228265 0.657877 0.449298 153 76 0
0.382693 -0.287863 -0.229741 153 0 76
0.040934 -0.095847 -0.446253 127 127 0
-0.247817 0.484031 -0.514057 0 0 255
-0.297493 -0.569360 0.317432 255 0 0
-0.357512 -0.168255 0.399369 76 0 153
0.220413 0.646319 0.481954 127 0 127
-0.390168 0.376503 0.467970 153 0 76
0.184293 -0.095847 -0.440080 127 127 0
-0.357512 0.590683 0.114348 76 0 153
0.272964 -0.793222 -0.563041 153 0 76
-0.352859 -0.211221 0.514610 255 0 0
-0.379282 -0.271877 -0.173026 76 0 153
0.110504 0.368004 -0.514057 0 0 255
0.360922 0.230497 -0.229012 153 0 76
0.382693 0.094433 0.037756 153 0 76
-0.262265 0.481559 0.310268 127 0 127
0.342271 0.628030 -0.491967 204 51 127
-0.162189 -0.335081 0.486795 255 0 0
0.382693 -0.182708 0.029775 153 0 76
0.072359 -0.128503 0.029472 127 127 0
-0.203640 0.472913 0.069741 76 153 0
0.382693 0.173205 -0.009704 153 0 76
-0.360491 0.279962 -0.563041 76 0 153
0.382693 -0.161899 -0.522818 153 0 76
0.042072 -0.095847 -0.031409 127 127 0
0.382693 -0.100224 0.243736 153 0 76
-0.302849 0.184667 0.481954 255 0 0
-0.357512 -0.075076 0.328175 76 0 153
-0.044003 -0.448054 0.498042 255 0 0
-0.262265 0.469077 -0.200275 127 0 127
-0.357512 0.068943 0.354489 76 0 153
-0.206457 0.551694 -0.514057 0 0 255
0.111234 -0.128503 -0.226210 127 127 0
-0.042010 0.518068 0.486795 0 255 0
-0.379282 0.522951 0.027036 76 0 153
-0.253479 -0.128503 -0.200165 127 127 0
-0.304860 -0.095847 0.086987 127 127 0
-0.357512 0.345309 -0.458053 76 0 153
0.305682 -0.526916 -0.514057 0 0 255
-0.357512 0.646377 0.165012 76 0 153
0.300863 -0.111850 0.514610 255 0 0
-0.379282 -0.347371 0.068202 76 0 153
-0.145476 -0.377038 0.486795 255 0 0
-0.379282 -0.440723 -0.139495 76 0 153
0.345149 -0.128503 0.167953 127 127 0
0.196503 0.457869 0.449298 0 255 0
0.360922 0.248424 -0.303818 153 0 76
0.102384 -0.095847 0.232881 127 127 0
-0.056732 -0.602745 0.449298 255 0 0
0.121412 0.242657 0.486795 255 0 0
0.326352 0.125251 0.560437 0 255 0
0.013794 -0.709006 -0.563041 153 0 76
0.234094 0.628030 -0.049009 204 51 127
-0.357512 0.360613 0.415389 76 0 153
-0.382002 -0.233133 0.495488 255 0 0
-0.343493 0.170632 0.481954 153 0 76
0.360922 0.198991 -0.074273 153 0 76
