ply
format ascii 1.0
element vertex 1276
property float x
property float y
property float z
property uchar red
property uchar green
property uchar blue
end_header
0.313170 -0.511621 0.481954 255 0 0
0.382693 -0.518322 0.289975 153 0 76
0.228938 -0.569360 -0.511176 255 0 0
-0.297059 0.628030 0.337461 0 0 255
-0.302515 -0.175215 0.514610 255 0 0
0.312915 0.627785 0.514610 127 0 127
0.209562 -0.569360 0.375207 255 0 0
0.202798 -0.569360 0.134753 255 0 0
0.385414 0.077517 0.491357 255 0 0
-0.141549 0.279695 0.514610 255 0 0
0.368796 -0.634395 -0.563041 204 51 127
-0.357512 -0.560368 0.435806 153 0 76
-0.141974 0.471659 -0.530385 0 0 255
0.309337 0.628030 0.068079 204 51 127
-0.357512 -0.140397 -0.138901 127 127 0
-0.215474 -0.525373 -0.530385 0 255 0
-0.031250 0.669040 0.449298 153 76 0
-0.346297 0.261041 0.449298 153 0 76
0.291185 -0.785457 -0.563041 153 0 76
0.180441 -0.128503 -0.057284 127 127 0
0.297062 0.649800 -0.141630 204 51 127
-0.379282 -0.819134 -0.539694 76 0 153
-0.282279 0.502900 -0.388875 127 0 127
-0.357512 0.473946 -0.131999 76 0 153
0.082149 -0.128503 -0.032292 127 127 0
0.212991 -0.095847 -0.395216 127 127 0
-0.371835 -0.296592 -0.563041 76 0 153
0.360922 0.155183 -0.385952 153 0 76
0.382693 -0.583973 -0.124330 153 0 76
0.360922 0.481757 -0.522714 153 0 76
-0.379282 -0.537676 0.321070 76 0 153
-0.379282 0.241449 -0.476787 76 0 153
0.294807 0.584247 -0.514057 0 0 255
-0.357512 -0.447117 -0.337363 76 0 153
0.139864 -0.780958 -0.563041 153 0 76
-0.183853 -0.569360 0.273738 255 0 0
-0.172690 -0.569360 0.429645 255 0 0
0.218308 -0.569360 -0.210230 255 0 0
0.382693 -0.364667 -0.239179 153 0 76
0.188972 0.242952 -0.530385 0 0 255
-0.151039 -0.391071 -0.514057 0 0 255
-0.379282 0.131484 -0.121325 76 0 153
-0.039228 -0.348103 -0.514057 0 0 255
-0.379282 -0.377519 -0.009046 76 0 153
-0.309175 0.493683 -0.514057 0 0 255
-0.043663 -0.751202 -0.563041 153 0 76
0.382693 -0.320086 -0.081197 153 0 76
0.382693 0.132921 -0.474741 153 0 76
-0.299727 0.620705 0.514610 127 0 127
-0.379282 -0.563219 0.163369 76 0 153
-0.357512 -0.620389 -0.109457 76 0 153
-0.300564 -0.095847 0.182235 127 127 0
-0.191381 -0.128503 -0.014621 127 127 0
-0.231156 -0.128503 0.319257 127 127 0
0.322635 0.351838 0.508730 255 0 0
0.026074 -0.128503 -0.102424 127 127 0
-0.304703 0.649800 -0.050104 0 0 255
-0.095293 -0.167958 0.498042 255 0 0
-0.379282 -0.272820 0.093653 76 0 153
-0.357512 0.503987 0.319092 76 0 153
-0.194201 0.472913 0.165981 76 153 0
0.360922 0.495800 -0.091944 153 0 76
0.329792 -0.623787 0.453045 76 0 153
-0.207533 -0.569360 -0.170038 255 0 0
0.382693 -0.254837 0.423213 153 0 76
-0.223805 -0.072238 0.486795 255 0 0
0.360922 0.264746 -0.382215 153 0 76
-0.357512 0.035360 0.084995 76 0 153
-0.290965 0.451143 0.143428 127 0 127
-0.357512 0.365819 0.444478 153 0 76
0.265675 0.478771 -0.026149 76 153 0
-0.349916 -0.266193 0.514610 255 0 0
-0.314582 0.649800 0.127598 0 0 255
0.190547 -0.128450 -0.530385 0 0 255
-0.136948 -0.569360 0.044733 255 0 0
0.382693 0.094234 0.088944 153 0 76
0.070731 0.472913 -0.006525 76 153 0
-0.357512 0.037799 0.334020 76 0 153
0.382693 -0.683581 0.292656 204 51 127
0.382693 -0.529206 -0.039155 153 0 76
-0.357512 0.006681 -0.333874 76 0 153
-0.379282 0.342462 -0.072973 76 0 153
-0.047144 -0.569360 -0.177104 255 0 0
-0.189348 -0.095847 -0.171773 127 127 0
0.360922 0.233218 0.166566 153 0 76
-0.175273 -0.233860 0.486795 255 0 0
0.360922 0.129060 0.351569 153 0 76
0.022952 -0.569360 0.082257 255 0 0
-0.159828 0.491872 0.498042 127 0 127
0.114370 -0.610718 0.345887 0 0 255
-0.357512 -0.623463 0.012650 76 0 153
-0.293358 -0.569360 -0.335688 255 0 0
0.312512 -0.569360 0.231620 255 0 0
0.147999 -0.282101 -0.530385 0 0 255
-0.054645 -0.612067 0.506228 255 0 0
0.193928 0.608791 -0.514057 0 0 255
-0.295989 -0.557296 0.514610 255 0 0
0.106843 0.487911 -0.530385 0 0 255
0.178008 -0.508586 -0.514057 0 0 255
0.071391 0.388499 0.514401 127 0 127
0.298817 -0.569360 -0.375045 255 0 0
-0.301047 -0.095847 0.336757 127 127 0
-0.248858 0.609162 -0.563041 153 0 76
0.319067 0.628030 -0.228766 204 51 127
0.001880 -0.710042 0.345887 0 0 255
-0.379282 -0.138279 0.019829 76 0 153
-0.357512 0.139923 -0.485923 76 0 153
0.279881 0.649800 0.404819 204 51 127
-0.302455 0.433513 0.514610 127 0 127
0.096137 -0.128503 -0.176444 127 127 0
-0.294921 0.473401 0.431121 127 0 127
0.189543 0.028458 0.486795 255 0 0
0.382693 0.510263 -0.250338 153 0 76
0.310182 -0.095847 0.113857 127 127 0
0.310246 0.649800 -0.345169 204 51 127
-0.180092 -0.449921 0.498042 255 0 0
-0.132186 -0.569360 -0.311446 255 0 0
-0.379282 0.501231 -0.243509 76 0 153
-0.357512 -0.294399 -0.141533 76 0 153
-0.368657 -0.432887 0.514227 255 0 0
0.382709 0.592112 0.505226 127 0 127
0.298331 0.514551 -0.254002 127 127 0
-0.379282 0.023197 -0.481946 76 0 153
-0.379282 -0.298251 0.316427 76 0 153
-0.134690 0.589613 0.514610 127 0 127
-0.379282 -0.819161 0.313411 76 0 153
-0.022730 0.544029 -0.514057 0 0 255
0.182664 -0.095847 -0.132817 127 127 0
0.382693 -0.312460 0.280616 153 0 76
-0.357512 0.174697 0.025051 76 0 153
0.381106 0.153839 0.506812 255 0 0
-0.379282 -0.748704 -0.488836 76 0 153
0.078309 -0.128503 -0.443779 127 127 0
0.246255 -0.623787 0.460587 255 0 0
0.360922 -0.224690 -0.265009 153 0 76
-0.379282 0.669905 -0.299184 76 0 153
-0.242764 0.088328 -0.514057 0 0 255
-0.254004 0.566602 0.449298 0 255 0
-0.357512 0.350818 -0.297567 76 0 153
0.329827 -0.322406 0.449298 76 0 153
-0.208843 -0.569360 0.150565 255 0 0
0.382693 -0.812886 -0.106281 204 51 127
0.328266 0.410308 0.456271 76 0 153
0.382693 -0.115533 -0.318685 153 0 76
0.313880 0.378911 -0.530385 0 0 255
0.382693 0.548446 0.399817 153 0 76
-0.327253 -0.031712 0.449298 153 0 76
0.393578 -0.002238 0.476882 76 0 153
0.382693 0.376484 0.153587 153 0 76
-0.020842 -0.260253 0.498042 255 0 0
0.298022 -0.095847 -0.020457 127 127 0
-0.338942 0.128296 0.449298 153 0 76
0.360922 -0.610897 -0.445611 153 0 76
0.382693 0.628844 -0.020543 153 0 76
-0.390168 0.585337 0.465682 153 0 76
-0.136691 0.003972 0.498042 255 0 0
0.334110 0.628030 0.220675 204 51 127
0.381566 -0.116691 0.506455 255 0 0
-0.379282 -0.358799 0.431272 76 0 153
-0.131906 -0.748661 -0.563041 153 0 76
0.038965 -0.095847 0.127500 127 127 0
-0.290360 -0.443509 0.509003 255 0 0
0.266336 0.024580 0.498042 255 0 0
0.099844 0.532175 -0.356219 0 127 127
-0.375982 -0.117399 0.508142 255 0 0
0.360922 0.326637 -0.484654 153 0 76
-0.357512 0.244322 -0.194857 76 0 153
0.361613 -0.097856 -0.563041 153 0 76
0.360922 0.219684 0.034152 153 0 76
-0.357512 -0.414400 -0.236058 76 0 153
-0.081652 0.618372 -0.563041 153 0 76
-0.192724 -0.095847 0.413414 127 127 0
0.328266 -0.222681 0.470893 255 0 0
-0.133600 -0.623787 0.474756 255 0 0
0.322941 -0.095847 0.334223 127 127 0
0.275274 -0.633573 0.345887 0 0 255
-0.041841 -0.496636 -0.530385 0 0 255
-0.379282 -0.266287 -0.493839 76 0 153
0.012269 0.481077 -0.228194 76 153 0
-0.232084 -0.153118 -0.530385 0 0 255
-0.060014 -0.569360 0.131174 255 0 0
0.303055 0.531663 0.514610 127 0 127
0.360922 -0.540377 0.411272 153 0 76
0.360922 -0.041110 0.377788 153 0 76
-0.379282 -0.678953 0.329135 76 0 153
-0.379282 -0.504553 0.116250 76 0 153
0.066884 0.617905 -0.514057 0 0 255
-0.379282 0.242328 0.376262 76 0 153
-0.357512 0.331230 -0.181812 76 0 153
0.062785 0.334125 0.453047 76 0 153
-0.226887 0.648379 0.212479 0 0 255
0.202526 -0.414862 -0.514057 0 0 255
0.324975 -0.128503 0.209790 127 127 0
0.296090 0.451143 0.121983 127 127 0
-0.294921 0.575992 -0.320847 127 0 127
0.212529 -0.128503 0.414371 127 127 0
0.382693 -0.261447 -0.543577 153 0 76
-0.357512 0.368593 -0.484035 76 0 153
-0.357512 -0.499887 -0.105976 76 0 153
0.194961 0.512427 -0.514057 0 0 255
0.360922 0.522833 0.128305 153 0 76
-0.311879 -0.125815 0.449298 153 0 76
0.298331 0.524178 0.216030 127 127 0
-0.357512 -0.075650 0.233711 76 0 153
-0.379282 0.112860 -0.246043 76 0 153
-0.379282 0.145951 -0.354324 76 0 153
0.382180 0.682456 -0.440623 153 0 76
-0.206556 0.080826 0.486795 255 0 0
-0.357512 0.602269 -0.213180 76 0 153
0.249854 -0.128503 -0.266456 127 127 0
-0.052668 -0.116341 -0.530385 0 0 255
0.360922 -0.347189 0.058861 153 0 76
0.265675 0.525342 0.306672 76 0 153
-0.082078 0.373036 0.449298 76 0 153
0.382693 0.576184 -0.418581 153 0 76
0.131642 0.622502 -0.563041 153 0 76
0.105748 -0.128503 0.346228 127 127 0
0.382693 -0.158261 -0.498860 153 0 76
0.251713 -0.115227 0.486795 255 0 0
0.382693 -0.221128 0.301384 153 0 76
-0.357512 -0.194301 -0.279982 76 0 153
0.382693 -0.427767 -0.479505 153 0 76
0.360922 -0.387350 -0.103134 153 0 76
0.169563 -0.529478 0.481954 255 0 0
-0.294921 0.505035 -0.107878 127 0 127
-0.207184 0.322433 -0.514057 0 0 255
-0.357512 0.201600 -0.129720 76 0 153
0.382693 -0.741215 -0.442630 204 51 127
0.298331 0.507739 -0.334677 127 127 0
0.188730 0.145911 0.498042 255 0 0
0.382693 -0.003833 0.098416 153 0 76
-0.379282 0.510653 -0.554192 76 0 153
-0.324855 -0.492191 0.458020 153 0 76
-0.223903 -0.310777 0.498042 255 0 0
-0.379282 -0.406315 0.235368 76 0 153
0.211399 0.481077 0.051258 76 153 0
-0.029425 -0.419669 0.486795 255 0 0
0.230298 0.647630 0.117107 204 51 127
-0.361702 -0.528448 -0.563041 76 0 153
0.304159 -0.523148 -0.514057 0 0 255
-0.313642 0.627864 -0.530385 0 0 255
-0.229383 0.649800 -0.340100 0 0 255
-0.357512 -0.187786 -0.035941 76 0 153
0.005521 -0.103804 0.486795 255 0 0
-0.333835 -0.237449 0.449298 153 0 76
0.382693 -0.753303 0.141250 204 51 127
0.360922 -0.437108 0.419529 153 0 76
-0.211080 0.512164 -0.356219 0 127 127
0.066557 -0.736154 -0.563041 153 0 76
-0.390168 -0.623136 0.456351 153 0 76
-0.224648 -0.272057 -0.514057 0 0 255
0.216999 -0.417075 0.486795 255 0 0
0.382693 0.641173 0.320922 153 0 76
-0.357512 0.366003 0.326334 76 0 153
0.360922 0.366994 -0.098447 153 0 76
-0.357512 0.470093 0.230913 76 0 153
-0.344469 -0.569360 -0.428004 255 0 0
-0.262265 0.580142 -0.210668 127 0 127
-0.379282 -0.226483 -0.158062 76 0 153
-0.379282 0.612781 0.065451 76 0 153
0.382693 -0.103809 0.249997 153 0 76
-0.286621 -0.737847 0.345887 0 0 255
0.107315 0.510831 0.449298 0 255 0
0.377902 -0.742951 0.345887 204 51 127
0.382693 0.116548 0.166120 153 0 76
0.248233 0.104700 -0.530385 0 0 255
0.360922 0.454685 -0.206976 153 0 76
0.328818 0.628030 -0.420812 204 51 127
-0.057189 0.481077 0.116231 76 153 0
0.246794 0.649800 -0.287265 204 51 127
-0.079778 -0.604047 -0.563041 153 0 76
-0.198618 0.663064 -0.563041 153 0 76
-0.297458 0.649800 -0.217129 0 0 255
-0.357512 -0.045348 -0.487691 76 0 153
-0.086992 0.354111 -0.514057 0 0 255
0.393578 0.439191 0.473291 76 0 153
-0.357512 -0.156849 0.145785 76 0 153
0.103083 -0.515326 -0.530385 0 0 255
0.238559 -0.264806 -0.514057 0 0 255
0.298331 0.501852 0.447643 127 127 0
0.256377 0.572263 0.449298 0 255 0
0.332286 0.621245 -0.563041 153 0 76
0.382693 -0.153522 -0.397119 153 0 76
0.039032 -0.623299 0.345887 0 0 255
0.229560 0.481077 -0.235424 76 153 0
0.227483 -0.128503 0.000429 127 127 0
0.382693 0.500478 0.206223 153 0 76
-0.379282 0.016910 -0.140052 76 0 153
0.327048 0.682456 0.460540 76 0 153
0.171270 0.637925 0.514610 127 0 127
0.220625 -0.746117 -0.563041 153 0 76
0.108544 0.397642 -0.530385 0 0 255
0.298331 0.519455 0.080549 127 127 0
-0.308395 -0.095847 -0.405241 127 127 0
0.098476 -0.468400 0.486795 255 0 0
-0.170669 0.653408 0.514610 127 0 127
-0.312281 0.628030 -0.375181 0 0 255
0.328266 0.274420 0.453773 76 0 153
-0.379282 0.469723 0.015712 76 0 153
-0.198430 -0.811073 0.345887 0 0 255
0.360922 -0.613421 -0.329907 153 0 76
0.314408 -0.095847 -0.116351 127 127 0
0.382693 -0.029801 -0.560060 153 0 76
0.060031 -0.569360 0.213791 255 0 0
0.336864 -0.131252 0.449298 127 127 0
-0.379282 0.327547 0.194880 76 0 153
0.360922 -0.359175 0.183289 153 0 76
0.382693 0.207529 0.400576 153 0 76
-0.390168 -0.293354 0.460584 153 0 76
0.004178 0.345858 0.513108 255 0 0
0.382693 -0.747549 -0.306427 204 51 127
-0.099496 -0.242908 -0.514057 0 0 255
0.360922 0.538352 0.262774 153 0 76
0.144389 -0.569360 -0.473606 255 0 0
-0.379282 0.608592 -0.482855 76 0 153
-0.379282 -0.094146 -0.216110 76 0 153
-0.209384 -0.569360 -0.089718 255 0 0
0.316046 -0.345490 0.514610 255 0 0
-0.378636 0.682456 -0.136664 76 0 153
0.382693 -0.224411 0.183728 153 0 76
0.360922 0.224975 -0.525151 153 0 76
0.360922 -0.432883 0.183205 153 0 76
0.252531 -0.700936 0.345887 0 0 255
-0.062144 -0.095847 0.184562 127 127 0
-0.379282 -0.787438 -0.367560 76 0 153
-0.117146 0.481077 -0.250275 76 153 0
0.382693 0.158556 0.282672 153 0 76
-0.095558 0.458602 0.514610 127 0 127
-0.357512 -0.181807 0.292672 76 0 153
-0.216245 -0.095847 -0.464263 127 127 0
-0.055805 0.682456 -0.550750 153 0 76
-0.322374 0.682456 0.480426 153 76 0
0.360922 0.611137 0.145772 153 0 76
0.002245 -0.569360 -0.033582 255 0 0
0.034987 -0.005711 -0.530385 0 0 255
0.328266 0.116749 0.479672 76 0 153
0.235524 -0.095847 0.091218 127 127 0
0.160273 0.472913 0.199043 76 153 0
0.085577 -0.128503 0.238439 127 127 0
0.360922 0.499974 0.328529 153 0 76
0.315049 -0.119181 -0.514057 0 0 255
0.382693 -0.441210 0.072946 153 0 76
0.083788 0.249451 0.486795 255 0 0
-0.379282 0.264496 -0.410850 76 0 153
-0.357512 -0.042967 0.106530 76 0 153
-0.226887 0.631742 0.062370 0 0 255
0.382693 0.176237 -0.224670 153 0 76
0.025340 0.497370 -0.356219 0 127 127
-0.293833 -0.569360 0.378572 255 0 0
0.175657 -0.610575 0.449298 255 0 0
-0.300398 -0.742339 -0.563041 153 0 76
-0.357512 0.114845 -0.037564 76 0 153
-0.245455 -0.128503 -0.402603 127 127 0
0.360922 -0.452154 0.288433 153 0 76
0.360922 0.073168 0.216073 153 0 76
-0.357512 -0.418545 0.386043 76 0 153
0.261804 0.621317 -0.563041 153 0 76
0.149939 0.481077 -0.119015 76 153 0
0.056228 0.472913 0.315440 76 153 0
-0.357512 -0.482871 -0.194225 76 0 153
0.056119 0.472913 0.218685 76 153 0
-0.379282 -0.325700 0.145797 76 0 153
-0.275069 -0.095847 0.099422 127 127 0
-0.357512 0.207009 0.140008 76 0 153
-0.002621 -0.128503 -0.367480 127 127 0
-0.083532 0.463848 -0.388875 0 127 127
-0.379282 -0.761650 0.275190 76 0 153
0.382693 0.176275 -0.100713 153 0 76
0.382693 0.105898 -0.159411 153 0 76
-0.028772 0.240303 -0.514057 0 0 255
-0.360853 0.682456 0.419275 76 0 153
-0.357512 0.026677 0.003106 76 0 153
-0.203083 0.451143 0.451288 0 255 0
-0.293682 -0.569360 0.049278 255 0 0
-0.379282 -0.632205 0.209742 76 0 153
-0.315398 -0.377213 0.514610 255 0 0
-0.287175 0.451143 -0.253330 127 0 127
-0.233562 -0.095847 0.253617 127 127 0
-0.311716 -0.579085 -0.514057 0 0 255
-0.119046 -0.128503 -0.294996 127 127 0
0.382554 -0.407136 -0.563041 153 0 76
0.360922 0.395632 0.397612 153 0 76
-0.248065 0.628030 -0.487506 0 0 255
0.198393 0.256478 0.486795 255 0 0
-0.049059 -0.095847 -0.181929 127 127 0
0.265675 0.579403 0.096459 127 127 0
0.360922 0.583074 -0.189468 153 0 76
-0.379282 0.502428 -0.412285 76 0 153
-0.294921 0.497859 0.093076 127 0 127
-0.157363 0.211952 -0.514057 0 0 255
-0.262265 0.572913 0.234169 127 0 127
0.047648 -0.569360 0.427948 255 0 0
-0.310111 -0.343066 -0.530385 0 0 255
0.382693 -0.104984 0.132794 153 0 76
-0.212115 -0.128503 -0.112273 127 127 0
0.382693 0.097134 -0.030927 153 0 76
0.094730 -0.128503 -0.305978 127 127 0
-0.078384 0.472913 -0.121032 76 153 0
0.261208 -0.196439 0.498042 255 0 0
0.117911 0.472913 -0.257672 76 153 0
0.350581 -0.569360 0.330335 255 0 0
-0.379282 -0.076237 -0.366549 76 0 153
0.289427 0.581767 0.180665 127 127 0
-0.357512 0.302932 0.055569 76 0 153
0.088232 -0.569360 -0.424355 255 0 0
0.342517 0.020547 0.518642 0 255 0
-0.379282 -0.615988 0.077190 76 0 153
-0.357512 -0.173039 -0.503034 0 0 255
0.382693 0.609770 0.432076 153 0 76
-0.085833 0.481077 -0.021043 76 153 0
0.184859 0.482228 -0.356219 0 127 127
0.360922 -0.119532 0.022567 153 0 76
0.243196 -0.128503 -0.145452 127 127 0
-0.013336 0.472913 0.017613 76 153 0
-0.379282 -0.547578 -0.238735 76 0 153
0.107897 0.149886 0.498042 255 0 0
0.139270 0.682456 -0.532106 153 0 76
0.382693 0.276232 0.003585 153 0 76
0.382693 0.435891 0.323570 153 0 76
0.020250 0.481077 -0.107145 76 153 0
-0.175537 -0.569360 -0.492398 255 0 0
-0.298694 -0.123480 -0.530385 0 0 255
-0.357512 -0.016038 -0.235670 76 0 153
-0.330596 0.148802 0.514610 255 0 0
-0.011979 -0.095847 0.265487 127 127 0
0.178174 -0.095847 0.180934 127 127 0
-0.013065 0.222912 0.498042 255 0 0
-0.125798 -0.058798 -0.530385 0 0 255
0.360922 0.040930 -0.231240 153 0 76
-0.379282 -0.167631 0.426644 153 0 76
0.101487 0.481077 0.088944 76 153 0
-0.383869 -0.453081 0.449298 153 0 76
0.382693 -0.648666 -0.105330 204 51 127
-0.081824 -0.404308 -0.514057 0 0 255
-0.379282 0.039299 0.231008 76 0 153
-0.379282 0.610533 0.398395 76 0 153
-0.329165 -0.095847 0.003681 127 127 0
-0.357512 0.095704 0.180274 76 0 153
-0.069786 0.486123 -0.530385 0 0 255
0.167280 0.555807 -0.563041 153 0 76
0.360922 0.231343 0.235640 153 0 76
-0.128944 0.072380 0.486795 255 0 0
-0.379282 0.249170 0.263005 76 0 153
-0.357512 0.276224 0.322480 76 0 153
-0.163837 0.345237 0.514261 255 0 0
-0.130154 0.619782 -0.514057 0 0 255
0.382693 -0.761100 0.017978 204 51 127
-0.000799 0.054180 0.486795 255 0 0
0.195873 0.386205 0.481954 127 0 127
-0.286940 -0.022239 0.501949 255 0 0
-0.294921 0.514690 -0.175230 127 0 127
-0.088027 -0.095847 0.097035 127 127 0
0.011635 0.682456 -0.547376 153 0 76
0.074231 -0.569360 0.147725 255 0 0
-0.212358 0.618884 0.449298 153 76 0
0.360922 0.374243 -0.321373 153 0 76
-0.324855 0.548790 0.450069 153 0 76
0.382693 -0.297576 -0.213256 153 0 76
0.382693 -0.549149 0.164400 153 0 76
0.226255 -0.558475 0.461970 255 0 0
-0.379282 -0.513854 -0.011690 76 0 153
-0.106328 0.533050 0.486795 0 255 0
0.360922 -0.013645 0.031475 153 0 76
0.243040 -0.569360 -0.000690 255 0 0
0.320148 -0.455536 -0.514057 0 0 255
0.001838 -0.095847 0.361005 127 127 0
0.295169 0.517437 -0.530385 0 0 255
0.360922 0.609113 -0.323514 153 0 76
-0.357512 -0.206783 -0.380188 76 0 153
-0.137850 0.472913 0.315460 76 153 0
0.135758 -0.041292 -0.514057 0 0 255
0.298331 0.508562 -0.147417 127 127 0
-0.223146 -0.669519 0.345887 0 0 255
-0.158460 0.472913 0.233230 76 153 0
-0.379282 -0.816254 0.151913 76 0 153
0.026935 0.492072 0.498042 127 0 127
-0.058853 -0.128503 -0.423187 127 127 0
-0.039216 -0.569360 0.208789 255 0 0
-0.379282 0.172892 0.385479 76 0 153
-0.122469 -0.095847 0.211609 127 127 0
0.164083 -0.128503 -0.258980 127 127 0
-0.011233 0.533866 0.546141 76 153 0
0.326090 -0.569360 -0.222962 255 0 0
-0.379282 -0.719069 0.188264 76 0 153
0.382693 -0.019312 -0.430001 153 0 76
-0.379282 -0.121824 -0.286589 76 0 153
-0.000821 -0.095847 -0.243615 127 127 0
-0.383439 0.496621 0.481954 153 0 76
0.382693 0.478104 -0.368106 153 0 76
-0.357512 -0.607233 0.301770 76 0 153
0.360922 -0.205592 -0.015975 153 0 76
0.030094 -0.244020 -0.514057 0 0 255
0.312762 -0.569360 -0.106810 255 0 0
-0.379282 0.054095 -0.557764 76 0 153
-0.373216 -0.588345 0.509541 255 0 0
0.360922 -0.222922 0.094626 153 0 76
0.107100 -0.128503 0.118711 127 127 0
-0.147133 -0.128503 -0.486228 127 127 0
-0.357512 -0.378318 -0.559327 76 0 153
-0.074259 -0.105119 0.498042 255 0 0
0.230649 0.649800 -0.021974 204 51 127
-0.020292 0.452196 0.449298 0 255 0
-0.357512 0.393273 0.124716 76 0 153
0.054882 -0.138943 -0.514057 0 0 255
-0.035886 0.472913 0.320153 76 153 0
-0.349144 -0.128503 0.375541 127 127 0
-0.042855 0.472913 0.217927 76 153 0
-0.357512 -0.200295 0.097252 76 0 153
-0.379282 -0.309021 -0.351120 76 0 153
0.071866 -0.051396 0.486795 255 0 0
-0.024435 -0.569360 0.431536 255 0 0
-0.090947 -0.372873 0.498042 255 0 0
-0.379282 -0.316123 -0.273118 76 0 153
0.230298 0.630400 -0.149357 204 51 127
-0.379282 -0.648250 -0.281070 76 0 153
0.382693 0.605125 0.266936 153 0 76
-0.255392 -0.616599 0.481954 255 0 0
0.141243 -0.690430 0.345887 0 0 255
-0.379282 0.583943 -0.545264 76 0 153
0.360922 -0.429613 -0.045892 153 0 76
0.382693 -0.102337 0.379655 153 0 76
0.216049 0.626694 0.449298 153 76 0
0.360922 0.285812 0.342634 153 0 76
0.325270 0.649800 -0.488717 204 51 127
0.059553 0.453179 -0.388875 0 127 127
-0.198405 0.472913 -0.064356 76 153 0
0.360922 0.022947 0.301828 153 0 76
-0.294921 0.510878 -0.318037 127 0 127
-0.160354 0.221284 0.486795 255 0 0
-0.303630 0.429261 -0.514057 0 0 255
0.240651 0.472913 -0.130389 76 153 0
-0.379282 0.459284 0.428265 76 0 153
0.382693 -0.652130 0.027827 204 51 127
0.051683 0.317775 -0.530385 0 0 255
0.165540 0.501163 0.498042 127 0 127
-0.357512 0.096046 -0.180919 76 0 153
0.038521 -0.541677 0.514610 255 0 0
-0.317943 -0.095847 -0.190105 127 127 0
0.393578 -0.313085 0.451596 153 0 76
-0.221837 -0.569360 0.001551 255 0 0
0.382693 -0.432080 -0.354014 153 0 76
0.382693 -0.217191 0.369310 153 0 76
-0.313682 -0.569360 0.191329 255 0 0
-0.065024 0.481077 -0.212478 76 153 0
0.010556 0.618972 0.449298 153 76 0
-0.390168 -0.043063 0.455017 153 0 76
-0.322500 0.682456 -0.562922 153 0 76
-0.357512 0.037326 -0.271274 76 0 153
-0.167443 0.533780 -0.530385 0 0 255
0.382693 -0.006932 0.179417 153 0 76
0.075628 -0.569360 -0.164638 255 0 0
0.160495 -0.095847 0.339981 127 127 0
0.107089 0.032044 0.486795 255 0 0
-0.357512 -0.029528 0.185671 76 0 153
0.393578 0.303876 0.462748 76 0 153
0.312705 0.230280 0.514610 255 0 0
0.382693 -0.523923 0.033881 153 0 76
-0.381785 0.228534 0.498379 255 0 0
0.360922 0.073157 0.416308 153 0 76
-0.379282 0.465643 -0.500051 76 0 153
0.382693 -0.683951 -0.158543 204 51 127
-0.379282 -0.278642 0.197718 76 0 153
-0.324855 0.196800 0.451196 153 0 76
-0.379282 -0.533238 -0.316494 76 0 153
-0.196328 -0.585209 -0.563041 153 0 76
-0.379282 -0.518423 0.208823 76 0 153
-0.379282 0.158033 0.277508 76 0 153
0.241067 0.451143 0.457399 0 255 0
0.282195 -0.095847 -0.422936 127 127 0
0.290529 0.162321 0.503427 255 0 0
-0.186725 0.472913 -0.310378 76 153 0
0.360922 -0.512882 -0.239488 153 0 76
0.060446 -0.197457 0.486795 255 0 0
0.298331 0.469247 -0.385260 127 127 0
-0.262265 0.502818 -0.026334 127 0 127
0.132463 0.481077 -0.038022 76 153 0
-0.357512 -0.582186 -0.358906 76 0 153
-0.357512 0.676749 -0.000694 76 0 153
-0.379282 0.460572 -0.194781 76 0 153
-0.336784 0.380596 0.507854 127 0 127
0.069726 -0.569360 0.363642 255 0 0
-0.321932 0.649800 0.279623 0 0 255
0.087171 0.547607 0.498042 127 0 127
0.292551 0.628030 -0.079596 204 51 127
0.360922 0.541278 -0.495314 0 0 255
-0.063297 0.596295 0.514610 127 0 127
-0.042626 -0.128503 -0.058113 127 127 0
0.249759 0.398835 -0.530385 0 0 255
0.177041 0.012985 -0.514057 0 0 255
-0.144171 0.617229 0.449298 153 76 0
0.360922 0.345981 0.102766 153 0 76
-0.122221 -0.095847 -0.408818 127 127 0
-0.063257 0.045435 -0.530385 0 0 255
-0.317338 -0.128503 -0.053863 127 127 0
0.226824 -0.569360 -0.147736 255 0 0
-0.379282 0.091430 0.415292 76 0 153
0.360922 -0.048360 -0.321839 153 0 76
-0.379282 0.301212 -0.496804 76 0 153
-0.095524 0.665149 0.449298 153 76 0
0.055449 -0.563917 -0.562703 153 0 76
-0.379282 0.372607 -0.225158 76 0 153
0.382693 0.266119 -0.471043 153 0 76
0.382693 -0.767569 -0.505583 204 51 127
0.360922 0.235880 -0.107508 153 0 76
0.360922 -0.242660 -0.377835 153 0 76
-0.357512 -0.077512 -0.105223 76 0 153
-0.379282 0.651012 0.125679 76 0 153
0.154088 -0.095847 -0.189765 127 127 0
-0.277309 0.005259 -0.514057 0 0 255
-0.294921 0.495848 0.312980 127 0 127
-0.023852 0.580505 -0.388875 0 127 127
0.360922 -0.522290 -0.113836 153 0 76
0.360922 0.677273 0.190613 153 0 76
-0.021564 -0.809833 -0.563041 153 0 76
-0.209586 0.453208 0.514610 127 0 127
0.322498 0.008452 -0.530385 0 0 255
0.382693 -0.539077 -0.562044 153 0 76
-0.342292 0.193615 -0.514057 76 0 153
-0.049367 -0.128503 -0.316272 127 127 0
-0.379282 -0.355017 0.270994 76 0 153
0.298331 0.569338 -0.223755 127 127 0
-0.379282 -0.749756 -0.093971 76 0 153
-0.379282 -0.466320 -0.396378 76 0 153
-0.113387 -0.569360 -0.486930 255 0 0
-0.357512 0.100842 0.080537 76 0 153
0.135475 -0.095162 0.486795 255 0 0
-0.379282 -0.086639 0.066288 76 0 153
0.227455 -0.569360 0.287020 255 0 0
-0.095473 -0.095847 0.292062 127 127 0
-0.379282 0.624396 -0.159185 76 0 153
0.298331 0.574982 -0.028388 127 127 0
-0.179354 -0.569360 0.205397 255 0 0
-0.216812 0.385853 -0.530385 0 0 255
-0.357512 -0.406084 -0.478028 76 0 153
-0.047753 0.167529 -0.514057 0 0 255
0.073464 -0.051744 -0.514057 0 0 255
-0.291720 0.568361 -0.388875 127 0 127
-0.091726 -0.502625 0.486795 255 0 0
0.375843 -0.212853 0.509735 76 0 153
0.382693 0.143589 -0.277518 153 0 76
0.141063 -0.632388 -0.563041 153 0 76
-0.379282 -0.376646 -0.144559 76 0 153
0.360922 0.045976 -0.297573 153 0 76
-0.145920 0.481077 0.039893 76 153 0
-0.040272 -0.569360 -0.111466 255 0 0
0.382693 -0.336286 0.351322 153 0 76
0.382693 0.421895 -0.079714 153 0 76
-0.025610 0.370409 -0.530385 0 0 255
0.026659 -0.325920 0.498042 255 0 0
0.382693 0.316815 -0.250176 153 0 76
-0.226874 -0.049601 -0.514057 0 0 255
0.382693 0.085940 -0.515551 153 0 76
-0.357512 0.040988 -0.386026 76 0 153
-0.149730 -0.095847 0.092264 127 127 0
0.223760 0.481077 0.179559 76 153 0
0.009707 -0.569360 -0.507530 0 0 255
0.328266 -0.050690 0.452147 76 0 153
-0.122740 -0.569360 -0.075647 255 0 0
-0.107641 -0.569360 -0.010067 255 0 0
-0.357512 -0.149941 -0.561703 76 0 153
-0.379282 -0.818233 -0.210252 76 0 153
0.360922 0.589430 0.025176 153 0 76
-0.323896 -0.128503 -0.327570 127 127 0
-0.096354 -0.311347 0.498042 255 0 0
0.382693 -0.623672 0.211544 153 0 76
-0.020592 -0.626973 -0.563041 153 0 76
0.139729 -0.163480 -0.530385 0 0 255
0.360922 -0.215548 -0.506194 0 0 255
0.360922 0.163957 -0.039553 153 0 76
0.159702 -0.128503 -0.352214 127 127 0
0.382693 -0.111716 0.311952 153 0 76
-0.223151 0.481077 -0.194096 76 153 0
-0.203294 -0.621118 0.449298 255 0 0
0.216139 -0.095847 0.284493 127 127 0
-0.168971 -0.481510 -0.530385 0 0 255
0.107374 -0.569360 0.256753 255 0 0
0.382693 -0.181972 -0.090770 153 0 76
-0.090175 0.165220 0.498042 255 0 0
0.197824 0.545617 0.449298 0 255 0
-0.070229 0.398634 0.514610 127 0 127
-0.379282 0.220997 -0.367444 76 0 153
-0.379282 -0.616526 -0.047276 76 0 153
-0.206485 0.389910 0.449298 76 0 153
0.024113 -0.341264 -0.514057 0 0 255
-0.099662 -0.128503 -0.081181 127 127 0
0.141937 0.152415 -0.514057 0 0 255
0.054471 0.472913 0.407400 76 153 0
0.019569 0.671534 0.505326 127 0 127
0.382693 -0.091730 -0.440395 153 0 76
-0.038891 0.481077 -0.340524 76 153 0
-0.018983 -0.128503 -0.470782 127 127 0
-0.218825 0.472913 0.222033 76 153 0
0.129586 -0.128503 0.061025 127 127 0
0.056323 0.535970 -0.514057 0 0 255
0.382693 -0.692789 0.149770 204 51 127
0.359873 -0.435717 0.514610 255 0 0
0.393578 0.198047 0.466576 76 0 153
-0.162382 -0.161599 0.498042 255 0 0
-0.379282 0.177291 0.082670 76 0 153
0.382693 -0.126855 0.189733 153 0 76
-0.022582 0.516226 -0.388875 0 127 127
-0.248045 0.342449 0.449298 76 0 153
-0.379282 -0.605033 -0.170669 76 0 153
-0.345829 -0.569360 -0.012911 255 0 0
0.382693 0.657087 -0.132779 153 0 76
0.364294 0.405286 0.514610 127 0 127
0.250808 0.346111 0.510460 255 0 0
-0.379282 0.459405 -0.306166 76 0 153
-0.286757 0.553304 0.499410 127 0 127
-0.379282 -0.755571 -0.156885 76 0 153
-0.357512 0.451371 -0.385826 76 0 153
-0.358582 0.038068 0.481954 153 0 76
-0.256250 0.628030 -0.173732 0 0 255
0.172685 -0.468979 0.486795 255 0 0
0.047856 -0.095847 -0.338275 127 127 0
0.360922 -0.305392 0.152427 153 0 76
0.382693 -0.113881 -0.189074 153 0 76
-0.357512 -0.251985 0.349226 76 0 153
0.121034 0.481077 -0.323521 76 153 0
0.360922 0.335339 0.390530 153 0 76
-0.379282 0.634326 -0.427896 76 0 153
0.053450 -0.095847 -0.148269 127 127 0
-0.250370 -0.128503 0.191954 127 127 0
-0.357512 0.625785 -0.334645 76 0 153
0.133937 -0.095847 -0.036174 127 127 0
-0.192032 0.627977 -0.514057 0 0 255
0.360922 -0.564237 0.102586 153 0 76
0.382693 0.335954 0.027713 153 0 76
-0.357512 0.244053 -0.263935 76 0 153
-0.075748 -0.569360 0.377963 255 0 0
0.382693 -0.459889 0.133666 153 0 76
0.050065 -0.128503 -0.243606 127 127 0
0.360922 0.608219 0.375707 153 0 76
-0.379282 0.240872 -0.078227 76 0 153
0.217857 0.456309 0.514610 127 0 127
-0.125340 0.160534 -0.514057 0 0 255
0.382693 -0.271412 -0.480412 153 0 76
-0.247157 -0.569360 -0.491034 255 0 0
-0.262265 0.502055 0.386053 127 0 127
0.382693 -0.640299 0.087300 204 51 127
-0.322482 0.490432 0.481954 127 0 127
-0.379282 0.085261 0.303903 76 0 153
0.360922 -0.405346 0.028099 153 0 76
0.382693 -0.551542 -0.448595 153 0 76
0.350100 -0.128503 0.081132 127 127 0
0.333237 0.334245 0.449298 76 0 153
0.338302 -0.631061 0.345887 0 0 255
-0.379282 0.381550 0.390695 76 0 153
-0.357512 -0.070333 -0.558208 76 0 153
-0.336686 0.628030 -0.267159 0 0 255
0.139792 0.264029 0.504780 255 0 0
-0.357512 -0.410643 -0.093533 76 0 153
0.073232 -0.569360 -0.247297 255 0 0
0.393578 -0.615429 0.456461 76 0 153
0.100768 -0.095847 0.019198 127 127 0
-0.279834 0.628030 -0.100175 0 0 255
0.276682 0.466883 0.508759 127 0 127
-0.245642 0.628030 -0.285923 0 0 255
0.382693 0.669995 0.441977 153 0 76
0.248625 0.628030 0.282357 204 51 127
-0.355789 0.599652 0.514610 127 0 127
0.309206 0.072052 0.514610 255 0 0
-0.329410 0.427999 0.449298 153 0 76
-0.135610 -0.630933 -0.563041 153 0 76
0.271011 0.628030 -0.403686 204 51 127
-0.379282 -0.520716 -0.437391 76 0 153
-0.357512 -0.446650 0.116551 76 0 153
0.382693 0.440867 0.209565 153 0 76
0.085334 -0.333632 0.486795 255 0 0
-0.357512 -0.474744 0.334893 76 0 153
0.112174 0.617144 0.455349 153 76 0
0.188006 0.334125 0.453787 76 0 153
-0.067344 -0.128503 0.014667 127 127 0
0.102031 0.448268 0.514610 127 0 127
0.012620 0.557975 0.486795 0 255 0
-0.054080 -0.204633 -0.530385 0 0 255
-0.176639 -0.317725 -0.514057 0 0 255
-0.146443 -0.737961 0.345887 0 0 255
-0.357512 0.529873 -0.290795 76 0 153
-0.086539 0.274216 -0.514057 0 0 255
0.206483 0.297322 -0.514057 0 0 255
-0.073456 -0.546898 -0.530385 0 0 255
0.360922 0.500861 0.009429 153 0 76
-0.246385 -0.569360 0.274225 255 0 0
0.007587 0.481077 -0.288584 76 153 0
0.382693 -0.089093 -0.265609 153 0 76
0.202004 -0.569360 -0.267210 255 0 0
-0.356590 -0.668331 -0.563041 76 0 153
0.325999 -0.325789 -0.530385 0 0 255
-0.109921 -0.586893 0.514610 255 0 0
-0.357512 0.541443 0.364994 76 0 153
0.267367 -0.095847 -0.312679 127 127 0
-0.357512 0.552882 -0.037460 76 0 153
-0.322372 -0.569360 -0.073138 255 0 0
0.298331 0.566718 -0.328588 127 127 0
0.333180 -0.128503 0.281262 127 127 0
-0.266548 0.214887 -0.530385 0 0 255
0.382693 -0.786768 -0.233537 204 51 127
-0.025586 -0.623787 0.454346 255 0 0
0.310467 -0.653167 -0.563041 153 0 76
-0.046942 0.280085 0.481954 255 0 0
0.233197 0.628030 0.172807 204 51 127
0.382693 -0.757200 -0.168669 204 51 127
0.360922 0.651858 0.085025 204 51 127
0.382693 0.274994 0.131136 153 0 76
-0.379282 0.170943 -0.256082 76 0 153
-0.327281 0.276830 0.514610 255 0 0
-0.357512 -0.555071 0.377158 76 0 153
-0.357512 -0.518620 0.267275 76 0 153
-0.332308 -0.569360 -0.134878 255 0 0
-0.148626 -0.569360 -0.367937 255 0 0
-0.203177 0.540129 0.486795 127 0 127
0.141467 0.355819 0.505399 255 0 0
0.069493 0.441581 -0.530385 0 0 255
0.382693 -0.260605 -0.124838 153 0 76
-0.379282 0.259724 0.125960 76 0 153
0.338998 -0.095847 -0.352640 127 127 0
0.265675 0.516881 -0.203530 127 127 0
0.360922 0.263873 -0.160479 153 0 76
0.255741 -0.095847 -0.216670 127 127 0
-0.294921 0.509285 0.253436 127 0 127
-0.166569 -0.392036 0.486795 255 0 0
-0.379282 -0.071341 -0.014339 76 0 153
0.335037 -0.782928 0.345887 0 0 255
-0.036138 0.581449 -0.563041 153 0 76
-0.104125 -0.048414 0.498042 255 0 0
-0.016098 -0.569360 -0.339676 255 0 0
0.083534 0.397189 0.449298 76 0 153
-0.379282 0.536924 0.193280 76 0 153
-0.379282 0.521278 -0.105264 76 0 153
0.278387 -0.128503 0.353576 127 127 0
0.298331 0.567377 -0.118728 127 127 0
-0.174617 -0.040538 0.486795 255 0 0
0.382693 0.636349 -0.220410 153 0 76
0.235601 0.649800 -0.513278 204 51 127
-0.357512 -0.360163 -0.376604 76 0 153
0.354949 0.475851 0.449298 76 0 153
0.360922 0.438746 0.034573 153 0 76
0.045205 0.472913 0.126775 76 153 0
0.330064 -0.569360 -0.299486 255 0 0
0.382693 -0.328697 -0.337889 153 0 76
-0.151356 -0.267767 -0.530385 0 0 255
-0.357512 0.283872 -0.556012 76 0 153
-0.357512 -0.293998 0.043959 76 0 153
-0.325929 0.330024 -0.514057 0 0 255
-0.320843 0.628030 0.071754 0 0 255
0.248845 0.246596 -0.514057 0 0 255
0.382693 0.679349 -0.504914 153 0 76
0.088532 -0.095847 0.440420 127 127 0
-0.213279 -0.556377 0.481954 255 0 0
-0.280339 0.256744 0.486795 255 0 0
0.360922 -0.472865 -0.150495 153 0 76
-0.379282 0.229555 -0.001339 76 0 153
-0.194553 -0.128503 0.364341 127 127 0
-0.260749 -0.095847 0.444000 127 127 0
-0.207349 -0.569360 -0.440760 255 0 0
-0.176607 -0.128503 0.175560 127 127 0
0.244470 0.472913 0.098241 76 153 0
-0.260324 0.294013 -0.530385 0 0 255
0.067419 -0.449834 -0.514057 0 0 255
-0.379282 0.398783 -0.405961 76 0 153
-0.357512 -0.483359 -0.522152 76 0 153
-0.357512 0.490363 0.096300 76 0 153
0.361022 -0.509550 0.514610 255 0 0
-0.220516 0.481077 0.338703 76 153 0
-0.379282 -0.238802 -0.016530 76 0 153
-0.390168 -0.392868 0.478278 153 0 76
-0.357512 0.365549 0.242283 76 0 153
-0.241644 -0.812395 -0.563041 153 0 76
-0.320129 -0.609926 0.345887 0 0 255
-0.379282 -0.184406 -0.102052 76 0 153
-0.379282 0.448683 -0.084688 76 0 153
-0.381894 0.143154 0.485397 153 0 76
0.393578 -0.406417 0.456152 76 0 153
0.261370 -0.128503 0.214920 127 127 0
0.382693 0.350078 -0.150974 153 0 76
-0.357512 0.416421 0.020832 76 0 153
0.336126 0.429817 -0.514057 0 0 255
-0.182569 0.059222 -0.514057 0 0 255
0.327608 -0.128503 -0.229995 127 127 0
0.005512 -0.569360 -0.449919 255 0 0
-0.002140 0.428143 -0.530385 0 0 255
-0.379282 0.394041 -0.531071 76 0 153
0.382693 0.052464 -0.112676 153 0 76
-0.379282 -0.699779 -0.252696 76 0 153
-0.174161 -0.153874 -0.530385 0 0 255
-0.242187 -0.207465 -0.514057 0 0 255
-0.273833 0.451143 0.207043 127 0 127
0.385004 -0.059425 0.500931 255 0 0
-0.049427 0.492978 0.486795 0 255 0
0.007222 -0.569360 -0.152901 255 0 0
0.382693 0.348288 -0.534925 153 0 76
0.382693 0.390921 -0.002585 153 0 76
-0.357512 0.622508 -0.054617 76 0 153
-0.208640 -0.095847 -0.058653 127 127 0
-0.379282 -0.253754 -0.407555 76 0 153
0.382693 -0.764027 0.198740 204 51 127
-0.237126 0.481077 -0.284128 76 153 0
0.382693 -0.553931 0.228225 153 0 76
0.206218 -0.569360 0.066830 255 0 0
0.220842 0.456727 -0.514057 0 0 255
0.246251 -0.546692 0.514610 255 0 0
-0.379282 0.314349 0.431657 76 0 153
0.291668 0.617144 0.460431 153 76 0
-0.357512 0.382168 0.068579 76 0 153
0.382693 -0.248606 0.246994 153 0 76
0.382693 0.176670 0.156585 153 0 76
0.161985 0.481077 -0.222135 76 153 0
0.093059 0.570665 -0.563041 153 0 76
0.360922 -0.159899 -0.289920 153 0 76
-0.379282 -0.298872 -0.077730 76 0 153
0.382693 -0.567187 -0.215184 153 0 76
0.348237 0.628030 -0.066629 153 0 76
0.157703 0.524951 -0.388875 0 127 127
-0.379282 -0.762366 0.021168 76 0 153
-0.040876 0.334125 0.456298 76 0 153
-0.331061 -0.095847 -0.484432 127 127 0
-0.379282 -0.685690 -0.363053 76 0 153
-0.333223 0.005674 -0.530385 0 0 255
0.214427 -0.128503 -0.442596 127 127 0
-0.308633 -0.128503 -0.112068 127 127 0
0.286758 0.649800 0.243624 204 51 127
-0.357512 0.330810 -0.124266 76 0 153
-0.041616 -0.478066 0.498042 255 0 0
-0.210537 -0.095847 -0.367929 127 127 0
-0.185853 -0.095847 0.286699 127 127 0
0.174268 -0.365050 0.498042 255 0 0
-0.160602 -0.693870 -0.563041 153 0 76
-0.325659 -0.095847 0.131178 127 127 0
-0.341627 0.628030 0.177490 0 0 255
0.360922 0.457123 -0.430795 153 0 76
0.332379 0.127165 0.555391 0 255 0
-0.012017 -0.001522 0.486795 255 0 0
0.360922 -0.516892 -0.487996 153 0 76
0.211543 0.481077 -0.009269 76 153 0
-0.368470 0.682456 0.283704 76 0 153
0.080407 -0.594398 0.514610 255 0 0
0.284199 -0.558475 0.466424 255 0 0
-0.357512 -0.190416 0.198421 76 0 153
0.080444 -0.678715 -0.563041 153 0 76
0.329302 -0.128503 0.393211 127 127 0
-0.284815 0.649800 0.388310 0 0 255
-0.357512 0.522023 0.015469 76 0 153
0.382693 -0.713892 -0.351967 204 51 127
0.121848 -0.569360 -0.198289 255 0 0
-0.237672 0.461094 -0.388875 0 127 127
-0.384108 -0.512330 0.449298 153 0 76
0.260295 0.159934 -0.530385 0 0 255
-0.379282 -0.565487 0.102549 76 0 153
-0.146460 0.472913 0.433149 76 153 0
0.309885 -0.216947 -0.530385 0 0 255
-0.379282 0.442185 0.156561 76 0 153
-0.379282 0.335381 -0.350281 76 0 153
-0.128495 -0.128503 -0.352479 127 127 0
-0.034545 0.481077 0.402943 76 153 0
0.190191 -0.095847 -0.484313 127 127 0
0.152663 -0.569360 0.348047 255 0 0
0.260021 -0.394676 -0.530385 0 0 255
0.334272 0.166527 -0.514057 0 0 255
0.360922 -0.305785 0.405375 153 0 76
0.130687 0.673994 0.499432 127 0 127
0.382693 0.546565 -0.076114 153 0 76
-0.340802 -0.237664 -0.530385 0 0 255
0.240229 -0.569360 -0.450702 255 0 0
-0.310038 0.096452 0.514610 255 0 0
-0.180768 -0.095847 -0.277047 127 127 0
0.043643 0.111857 -0.514057 0 0 255
0.031730 0.472913 -0.051725 76 153 0
0.140122 -0.587673 0.514610 255 0 0
0.237782 -0.291676 0.486795 255 0 0
0.360922 0.414386 0.116267 153 0 76
0.118367 -0.569360 0.004615 255 0 0
0.360922 -0.338026 0.235617 153 0 76
0.135886 -0.761760 0.345887 0 0 255
0.360922 0.236416 0.092892 153 0 76
0.138237 0.481077 0.315561 76 153 0
-0.268643 0.451143 -0.129765 127 0 127
-0.294921 0.543871 0.014463 127 0 127
0.313473 -0.569360 0.015728 255 0 0
0.239949 -0.084274 -0.530385 0 0 255
0.382693 0.599110 -0.535591 153 0 76
-0.058465 -0.210618 0.486795 255 0 0
0.112703 -0.590642 -0.530385 0 0 255
0.021522 0.415290 0.481954 127 0 127
0.360922 -0.050041 0.238700 153 0 76
-0.237318 0.472913 0.034325 76 153 0
0.277919 0.581767 0.316555 127 127 0
0.369139 0.321428 0.514610 255 0 0
0.196799 -0.307084 -0.514057 0 0 255
-0.123693 0.334125 0.462474 76 0 153
-0.244936 -0.616208 0.345887 0 0 255
-0.379282 -0.613063 -0.455054 76 0 153
-0.272269 0.179582 0.486795 255 0 0
0.139791 -0.095847 -0.310012 127 127 0
-0.379282 0.074491 -0.129772 76 0 153
-0.262265 0.548338 -0.084007 127 0 127
-0.219360 -0.128503 -0.210084 127 127 0
0.117508 -0.265708 0.486795 255 0 0
0.229623 -0.128503 -0.340672 127 127 0
0.360922 -0.619307 -0.390579 153 0 76
0.009257 -0.128503 0.039377 127 127 0
0.033372 0.472913 -0.165756 76 153 0
0.300007 0.628030 0.352088 204 51 127
0.042386 -0.095847 0.253947 127 127 0
-0.011696 -0.569360 -0.250627 255 0 0
0.382693 -0.013682 0.423632 153 0 76
-0.312446 -0.095847 0.401441 127 127 0
0.005698 -0.569360 0.028734 255 0 0
0.067269 -0.569360 -0.056970 255 0 0
-0.088362 -0.095847 0.439273 127 127 0
0.382693 -0.676084 -0.246811 204 51 127
-0.326428 0.628030 -0.001004 0 0 255
-0.298553 0.568529 -0.514057 0 0 255
0.099018 0.472913 -0.139286 76 153 0
0.276747 -0.372889 0.486795 255 0 0
0.246937 -0.569360 -0.394391 255 0 0
0.234383 0.481077 -0.331523 76 153 0
0.360922 -0.002691 -0.120606 153 0 76
-0.379282 -0.676356 -0.428486 76 0 153
0.356415 -0.569360 -0.072804 153 0 76
0.018293 0.586025 -0.514057 0 0 255
-0.246419 -0.128503 -0.295398 127 127 0
-0.061850 -0.781695 0.345887 0 0 255
0.382693 -0.764568 -0.049285 204 51 127
-0.379282 -0.439564 0.003741 76 0 153
-0.379282 -0.359005 -0.438615 76 0 153
0.360922 -0.307644 -0.031992 153 0 76
-0.379282 0.131897 -0.408761 76 0 153
0.257462 0.506207 -0.388875 0 127 127
0.298331 0.492816 0.337062 127 127 0
0.344130 -0.569360 -0.163885 255 0 0
0.062113 -0.095847 -0.076303 127 127 0
0.360922 -0.197769 -0.208718 153 0 76
0.129681 -0.155564 0.498042 255 0 0
-0.262265 0.574267 -0.269319 127 0 127
0.360922 -0.243098 -0.318365 153 0 76
-0.357512 0.488518 0.380503 76 0 153
0.298331 0.452433 0.423177 127 127 0
-0.266276 -0.456537 -0.530385 0 255 0
-0.379282 0.539464 0.136344 76 0 153
-0.276775 0.649800 0.167596 0 0 255
0.382693 0.214372 -0.378037 153 0 76
0.011661 -0.739839 -0.563041 153 0 76
0.025461 -0.095847 0.436145 127 127 0
0.237973 -0.585183 -0.563041 153 0 76
-0.133299 -0.128503 0.269210 127 127 0
-0.264555 0.628030 0.434802 0 0 255
-0.379282 -0.434626 -0.287164 76 0 153
-0.357512 0.081960 -0.490692 76 0 153
0.382693 -0.127045 -0.099771 153 0 76
0.201602 0.082015 0.486795 255 0 0
-0.379282 -0.410078 0.290691 76 0 153
-0.379282 -0.294875 -0.194925 76 0 153
0.360922 -0.510831 -0.391836 153 0 76
0.382693 0.308955 -0.358077 153 0 76
0.305177 -0.010659 0.481954 255 0 0
-0.041943 0.552312 0.486795 127 0 127
0.360922 0.071860 -0.364585 153 0 76
-0.253399 0.495643 -0.530385 0 0 255
-0.252047 0.334011 0.514610 255 0 0
0.050951 -0.128503 -0.396306 127 127 0
-0.275598 -0.128503 -0.226985 127 127 0
0.382693 -0.346936 -0.416126 153 0 76
-0.336493 -0.095847 0.280054 127 127 0
-0.379282 0.560864 -0.244582 76 0 153
0.310346 -0.094615 0.481954 76 0 153
-0.075590 0.095580 0.486795 255 0 0
0.055054 -0.569360 -0.342245 255 0 0
0.382693 -0.043228 0.136358 153 0 76
0.093340 0.575558 -0.388875 0 127 127
-0.161057 -0.605416 0.345887 0 0 255
-0.379282 0.065423 -0.029231 76 0 153
-0.090838 -0.569360 0.077832 255 0 0
-0.348194 -0.128503 0.192625 76 0 153
0.069663 0.165515 -0.530385 0 0 255
-0.379282 -0.397437 0.079489 76 0 153
-0.350052 -0.779380 -0.563041 153 0 76
0.382693 -0.662830 0.345796 204 51 127
0.001288 -0.095847 0.166989 127 127 0
0.382693 -0.443978 0.232372 153 0 76
-0.129536 -0.569360 0.396283 255 0 0
-0.379282 -0.369837 -0.258755 76 0 153
0.160689 0.383965 -0.514057 0 0 255
-0.108655 0.428241 -0.530385 0 0 255
-0.126707 -0.523319 -0.514057 0 0 255
0.005981 -0.569360 0.314761 255 0 0
0.298331 0.470601 0.260405 127 127 0
0.176066 -0.107993 0.449298 127 127 0
0.279581 0.579854 0.505054 127 0 127
0.212793 -0.128503 0.145761 127 127 0
0.095390 0.261189 -0.530385 0 0 255
-0.059327 0.585444 -0.514057 0 0 255
-0.193723 -0.128503 0.103858 127 127 0
0.293940 -0.742389 0.345887 0 0 255
-0.217494 -0.128271 0.449298 127 127 0
0.366817 0.210731 0.514610 255 0 0
-0.309172 -0.569360 -0.275475 255 0 0
-0.183853 -0.569360 0.099385 255 0 0
0.360922 0.332371 0.232719 153 0 76
0.256753 0.399437 0.452696 76 0 153
0.315797 -0.591125 -0.514057 0 0 255
0.348209 -0.610296 0.507603 255 0 0
0.363098 0.103263 -0.563041 153 0 76
-0.309825 0.109007 -0.530385 0 0 255
0.046880 -0.095847 -0.473480 127 127 0
0.360922 0.467172 -0.154217 153 0 76
-0.357512 0.590740 0.109894 76 0 153
-0.324855 -0.176479 0.463429 153 0 76
0.309325 -0.468568 0.514610 255 0 0
-0.379282 0.553172 -0.334548 76 0 153
0.231281 -0.095847 -0.042584 127 127 0
0.146120 -0.128503 0.235873 127 127 0
-0.379282 -0.243164 0.409053 76 0 153
0.360922 0.154161 -0.147678 153 0 76
0.203576 -0.183950 0.486795 255 0 0
0.344764 -0.384156 0.449298 76 0 153
0.360922 -0.489989 0.436703 76 0 153
0.291202 0.561624 -0.563041 153 0 76
-0.379282 -0.166065 -0.409377 76 0 153
-0.379282 -0.762525 0.078289 76 0 153
-0.109631 -0.569360 0.172865 255 0 0
-0.357512 -0.302168 0.252715 76 0 153
-0.282762 0.380662 0.507906 127 0 127
0.360922 0.119623 0.243520 153 0 76
0.360922 0.383470 -0.200241 153 0 76
-0.269630 -0.569360 0.160172 255 0 0
-0.040144 -0.128503 -0.226366 127 127 0
-0.334404 -0.806210 0.345887 0 0 255
0.332503 0.649800 0.024538 204 51 127
0.048584 0.311068 0.514610 255 0 0
0.393578 -0.534939 0.459073 76 0 153
-0.289216 0.451143 -0.375617 127 0 127
0.053877 0.528663 0.449298 0 255 0
-0.357512 -0.605963 -0.504968 76 0 153
0.159378 -0.095847 -0.400481 127 127 0
0.382693 -0.569600 0.003819 153 0 76
-0.379282 -0.713615 -0.196613 76 0 153
0.359566 0.544428 0.514610 127 0 127
0.235920 0.574381 -0.514057 0 0 255
0.360922 -0.170609 0.300060 153 0 76
0.360922 0.045085 0.088348 153 0 76
0.265675 0.534343 0.395148 127 127 0
-0.357512 0.552829 -0.425326 76 0 153
0.206021 -0.095847 -0.251215 127 127 0
0.340975 0.281719 -0.514057 0 0 255
0.095675 -0.259473 -0.514057 0 0 255
0.019512 0.142198 0.498042 255 0 0
-0.149887 -0.095847 -0.024152 127 127 0
0.381097 0.682456 -0.019154 153 0 76
0.230298 0.631708 0.395310 204 51 127
0.298331 0.509518 0.006119 127 127 0
0.066380 0.481077 -0.245299 76 153 0
-0.238149 -0.099844 -0.530385 0 0 255
-0.210366 0.133095 0.498042 255 0 0
-0.328322 0.067913 0.449298 153 0 76
-0.151515 -0.128503 0.443987 127 127 0
-0.028713 -0.069050 -0.514057 0 0 255
0.382693 0.435787 -0.257210 153 0 76
-0.357512 -0.308276 -0.467318 76 0 153
-0.039703 -0.569360 -0.411835 255 0 0
0.360922 0.410475 0.281771 153 0 76
0.009088 -0.569360 0.231856 255 0 0
-0.101325 -0.095847 -0.207858 127 127 0
0.206707 -0.128503 0.060105 127 127 0
-0.357512 -0.488599 0.030173 76 0 153
0.360922 0.561857 -0.298437 153 0 76
-0.007906 -0.656759 0.345887 0 0 255
-0.277452 -0.128503 0.145882 127 127 0
-0.171100 -0.569360 -0.129935 255 0 0
-0.241403 0.425375 0.481954 127 0 127
0.382693 -0.475575 -0.206707 153 0 76
-0.111685 0.581767 -0.379106 0 127 127
0.060740 0.590902 0.514610 127 0 127
-0.318170 -0.569360 0.244480 255 0 0
-0.379282 0.068154 0.129726 76 0 153
0.360922 -0.176031 0.405331 153 0 76
-0.306226 -0.095847 0.052302 127 127 0
-0.379282 -0.772211 0.181878 76 0 153
0.382693 -0.339946 0.106905 153 0 76
-0.357512 -0.407628 0.186802 76 0 153
-0.357512 0.450731 0.312987 76 0 153
0.256470 0.348625 -0.514057 0 0 255
0.111222 -0.095847 -0.469909 127 127 0
0.100549 -0.558475 0.464681 255 0 0
0.382693 0.150914 -0.332123 153 0 76
0.382693 -0.564914 -0.328535 153 0 76
0.140107 -0.569360 -0.308938 255 0 0
0.066329 0.506392 -0.388875 0 127 127
-0.242868 -0.397885 -0.514057 0 0 255
-0.357724 -0.623787 0.411667 76 0 153
0.360922 0.541311 0.047714 153 0 76
-0.379282 -0.629590 -0.330806 76 0 153
0.094362 -0.569360 -0.111189 255 0 0
0.360922 -0.617008 -0.276923 153 0 76
0.241418 0.481077 -0.075511 76 153 0
0.360922 0.085632 -0.464419 153 0 76
-0.357512 0.642607 -0.103718 0 0 255
-0.262265 0.535571 0.111134 127 0 127
-0.335978 -0.308477 0.449298 153 0 76
0.238136 -0.756106 0.345887 0 0 255
-0.136589 -0.558475 0.467849 255 0 0
0.382693 -0.368507 -0.499946 153 0 76
0.236224 -0.095847 0.375540 127 127 0
0.072434 0.052232 -0.514057 0 0 255
0.340347 -0.569360 -0.419985 255 0 0
0.165726 -0.569360 -0.089691 255 0 0
0.272139 -0.128503 0.130903 127 127 0
-0.379282 -0.703024 -0.515792 76 0 153
0.382693 0.082765 0.338008 153 0 76
0.048165 -0.095847 0.013556 127 127 0
0.314232 0.628030 -0.281435 204 51 127
0.339866 -0.128503 0.158756 127 127 0
0.225300 -0.809587 0.345887 0 0 255
0.374290 0.682456 -0.339757 153 0 76
-0.357512 -0.024825 -0.109698 76 0 153
0.313929 -0.569360 0.078347 255 0 0
0.382693 -0.009339 -0.019589 153 0 76
-0.346040 0.628030 0.361266 76 0 153
-0.147143 0.638082 -0.563041 153 0 76
-0.327006 -0.703816 0.345887 0 0 255
0.382693 -0.430033 0.366419 153 0 76
0.265675 0.528132 -0.293198 127 127 0
0.224742 -0.095847 -0.100947 127 127 0
-0.261803 0.649800 0.102891 0 0 255
0.298331 0.501719 -0.069812 127 127 0
-0.096308 -0.569360 -0.196269 255 0 0
-0.137498 0.472913 -0.014153 76 153 0
-0.357512 -0.365855 0.383373 76 0 153
0.144477 -0.569360 -0.395469 255 0 0
-0.357512 0.127790 -0.298887 76 0 153
-0.390168 0.279171 0.472204 153 0 76
-0.262265 0.536938 -0.353962 127 0 127
0.346114 -0.095847 -0.070159 127 127 0
0.066373 -0.128503 0.181951 127 127 0
-0.174694 -0.095847 0.023302 127 127 0
0.190657 -0.074497 0.498042 255 0 0
0.382693 0.463220 -0.478560 153 0 76
-0.092795 -0.569360 0.281933 255 0 0
0.326658 0.628030 0.414960 204 51 127
0.182339 -0.569360 0.237311 255 0 0
-0.379282 0.094319 -0.365913 76 0 153
-0.357512 -0.596359 -0.217696 76 0 153
-0.294921 0.509243 0.152786 127 0 127
-0.111224 -0.095847 -0.125191 127 127 0
0.304898 0.416631 0.514610 127 0 127
-0.012742 -0.581617 0.514610 255 0 0
0.255218 -0.035020 -0.514057 0 0 255
-0.346053 0.543047 -0.514057 76 0 153
-0.379282 0.609901 0.211580 76 0 153
-0.161467 0.495209 -0.356219 0 127 127
-0.357512 -0.272383 0.147130 76 0 153
0.296063 0.451143 -0.153865 127 127 0
0.201369 -0.464670 -0.530385 0 0 255
0.132510 0.069487 -0.514057 0 0 255
-0.276510 0.628030 0.265434 0 0 255
-0.357512 -0.054508 0.304297 76 0 153
-0.357512 0.348383 -0.025766 76 0 153
0.035739 0.618687 -0.563041 153 0 76
0.382693 -0.249874 0.138035 153 0 76
-0.178494 -0.038344 -0.530385 0 0 255
-0.182298 0.581767 -0.359267 0 127 127
-0.159873 0.481077 -0.119373 76 153 0
0.336147 -0.569360 0.447018 76 0 153
-0.033945 0.656637 0.514610 127 0 127
0.393578 0.252248 0.454698 76 0 153
0.238864 0.296428 0.481954 255 0 0
-0.194921 0.502709 0.449298 0 255 0
0.020949 -0.054576 0.498042 255 0 0
-0.379282 -0.811589 0.002250 76 0 153
0.241996 0.472913 0.340082 76 153 0
-0.113465 -0.128503 0.349121 127 127 0
-0.262265 0.575555 0.182092 127 0 127
0.165086 0.472913 0.082529 76 153 0
0.360922 -0.213909 -0.132795 153 0 76
0.185992 -0.688494 -0.563041 153 0 76
0.360922 0.260542 -0.288102 153 0 76
